ply
format ascii 1.0
comment VCGLIB generated
element vertex 716
property float x
property float y
property float z
property float nx
property float ny
property float nz
property uchar red
property uchar green
property uchar blue
property uchar alpha
element face 0
property list uchar int vertex_indices
end_header
2.22266 2.03813 0.902344 -0.886031 0.0950759 -0.453772 255 0 0 255 
2.14479 2.01172 1.37891 -0.861618 -0.307617 -0.403716 255 0 0 255 
2.14453 2.01254 1.37891 -0.861618 -0.307617 -0.403716 255 0 0 255 
2.14453 2.01172 1.37943 -0.855847 -0.289315 -0.428745 255 0 0 255 
2.26172 2.05859 0.886376 -0.0181955 0.485518 -0.874037 255 0 0 255 
2.26953 2.05859 0.885411 0.00647679 0.37698 -0.926199 255 0 0 255 
2.27734 2.05859 0.88498 0.0550265 0.239248 -0.969398 255 0 0 255 
2.28516 2.05859 0.885448 0.0310214 -0.0483623 -0.998348 255 0 0 255 
2.29297 2.05859 0.88586 0.0458777 0.0809385 -0.995663 255 0 0 255 
2.13678 1.97266 1.42578 -0.86937 -0.307343 -0.386957 255 0 0 255 
2.13672 1.97283 1.42578 -0.86937 -0.307343 -0.386957 255 0 0 255 
2.13672 1.97266 1.4259 -0.864017 -0.289796 -0.411695 255 0 0 255 
2.26715 2.04297 0.886719 0.157353 -0.350951 -0.923078 255 0 0 255 
2.26953 2.04402 0.886719 0.151376 -0.354907 -0.922565 255 0 0 255 
2.26953 2.04297 0.88717 0.153052 -0.352026 -0.923392 255 0 0 255 
2.27734 2.04695 0.886719 0.160871 -0.372017 -0.914179 255 0 0 255 
2.27734 2.04297 0.888316 0.164744 -0.379713 -0.910317 255 0 0 255 
2.28516 2.05072 0.886719 0.163192 -0.204712 -0.965123 255 0 0 255 
2.28516 2.04297 0.89007 0.197154 -0.387601 -0.900498 255 0 0 255 
2.29297 2.04297 0.891606 0.161821 -0.359382 -0.919053 255 0 0 255 
2.30078 2.04297 0.893184 0.189772 -0.364732 -0.911568 255 0 0 255 
2.23011 2.05859 0.902344 -0.658623 0.565595 -0.496305 255 0 0 255 
2.23047 2.05892 0.902344 -0.650333 0.581068 -0.489313 255 0 0 255 
2.23828 2.06615 0.902344 -0.476215 0.716203 -0.510169 255 0 0 255 
2.23272 2.01953 0.894531 -0.673559 -0.322942 -0.664851 255 0 0 255 
2.23047 2.02574 0.894531 -0.683509 -0.231101 -0.692393 255 0 0 255 
2.23047 2.01953 0.896981 -0.677181 -0.360949 -0.641204 255 0 0 255 
2.34503 2.00391 1.38672 0.114827 -0.853355 -0.508527 255 0 0 255 
2.34766 2.00416 1.38672 0.127496 -0.850809 -0.509774 255 0 0 255 
2.34766 2.00391 1.38717 0.122638 -0.847069 -0.51714 255 0 0 255 
2.35547 2.00556 1.38672 0.076612 -0.879941 -0.468866 255 0 0 255 
2.35547 2.00391 1.38961 0.0903191 -0.841981 -0.531894 255 0 0 255 
2.36328 2.00554 1.38672 0.0334724 -0.881147 -0.471655 255 0 0 255 
2.36328 2.00391 1.38952 0.0320215 -0.865885 -0.499216 255 0 0 255 
2.37109 2.00591 1.38672 0.139402 -0.869671 -0.473539 255 0 0 255 
2.37109 2.00391 1.39006 0.140545 -0.869851 -0.472871 255 0 0 255 
2.37891 2.0078 1.38672 0.205774 -0.863762 -0.45997 255 0 0 255 
2.37891 2.00391 1.39404 0.189496 -0.844598 -0.500744 255 0 0 255 
2.38672 2.0095 1.38672 0.102976 -0.871667 -0.479158 255 0 0 255 
2.39453 2.00943 1.38672 -0.0008483 -0.873081 -0.487575 255 0 0 255 
2.40234 2.00932 1.38672 0.00775584 -0.871724 -0.489936 255 0 0 255 
2.41016 2.00932 1.38672 0.0462307 -0.867094 -0.495994 255 0 0 255 
2.41797 2.0105 1.38672 0.0186383 -0.870873 -0.491154 255 0 0 255 
2.42578 2.00988 1.38672 0.0359363 -0.882178 -0.469542 255 0 0 255 
2.43359 2.011 1.38672 0.0431811 -0.874855 -0.482457 255 0 0 255 
2.44141 2.01048 1.38672 0.0368614 -0.863052 -0.503769 255 0 0 255 
2.44922 2.01129 1.38672 0.0237464 -0.874794 -0.483913 255 0 0 255 
2.45703 2.01133 1.38672 0.020275 -0.876591 -0.480809 255 0 0 255 
2.46484 2.01168 1.38672 0.0154733 -0.857424 -0.514378 255 0 0 255 
2.47266 2.01099 1.38672 0.0450336 -0.860107 -0.508121 255 0 0 255 
2.55487 1.97266 1.44922 0.0722095 -0.791111 -0.607396 255 0 0 255 
2.55859 1.97318 1.44922 0.0924386 -0.795428 -0.598957 255 0 0 255 
2.55859 1.97266 1.4499 0.0871001 -0.800003 -0.59364 255 0 0 255 
2.56641 1.97398 1.44922 0.0998098 -0.756935 -0.645823 255 0 0 255 
2.56641 1.97266 1.45089 0.0896224 -0.78162 -0.617283 255 0 0 255 
2.57422 1.97518 1.44922 0.16123 -0.759839 -0.629802 255 0 0 255 
2.57422 1.97266 1.45234 0.164178 -0.773414 -0.612272 255 0 0 255 
2.58203 1.97719 1.44922 0.289638 -0.742714 -0.603726 255 0 0 255 
2.58203 1.97266 1.45529 0.252785 -0.776297 -0.577462 255 0 0 255 
2.56901 1.98828 1.43359 0.063684 -0.794423 -0.604016 255 0 0 255 
2.57422 1.98882 1.43359 0.139975 -0.803428 -0.578715 255 0 0 255 
2.57422 1.98828 1.43428 0.139975 -0.803428 -0.578715 255 0 0 255 
2.58203 1.99043 1.43359 0.222612 -0.822311 -0.523688 255 0 0 255 
2.58203 1.98828 1.43709 0.243535 -0.782452 -0.573114 255 0 0 255 
2.58984 1.99308 1.43359 0.250251 -0.819908 -0.514903 255 0 0 255 
2.58984 1.98828 1.44089 0.232163 -0.780544 -0.580389 255 0 0 255 
2.59766 1.99521 1.43359 0.246711 -0.810008 -0.531997 255 0 0 255 
2.50391 2.00002 1.41016 0.0290943 -0.857691 -0.513341 255 0 0 255 
2.50391 1.99609 1.41729 0.0129057 -0.80545 -0.592523 255 0 0 255 
2.51172 2.00061 1.41016 0.00940698 -0.844121 -0.53607 255 0 0 255 
2.51172 1.99609 1.41606 0.0218812 -0.846485 -0.531963 255 0 0 255 
2.51953 2.00047 1.41016 0.0102037 -0.860557 -0.509251 255 0 0 255 
2.51953 1.99609 1.41743 0.0944345 -0.811411 -0.576797 255 0 0 255 
2.52734 2.00092 1.41016 0.0624753 -0.871124 -0.487073 255 0 0 255 
2.53516 2.00149 1.41016 0.0250468 -0.87003 -0.492362 255 0 0 255 
2.54297 2.00088 1.41016 0.0319713 -0.854371 -0.518679 255 0 0 255 
2.55078 2.00176 1.41016 0.0506029 -0.855462 -0.515387 255 0 0 255 
2.55859 2.00225 1.41016 0.0299748 -0.862999 -0.504316 255 0 0 255 
2.56641 2.00259 1.41016 -0.0112884 -0.877971 -0.478582 255 0 0 255 
2.57422 2.00223 1.41016 0.0724718 -0.884302 -0.461256 255 0 0 255 
2.58203 2.00357 1.41016 0.22872 -0.858539 -0.45891 255 0 0 255 
2.1409 2.00391 1.39453 -0.917159 -0.222765 -0.330446 255 0 0 255 
2.29331 2.03516 0.894531 0.150013 -0.339124 -0.928704 255 0 0 255 
2.30078 2.03935 0.894531 0.18146 -0.337864 -0.923537 255 0 0 255 
2.30078 2.03516 0.896019 0.169079 -0.338128 -0.925787 255 0 0 255 
2.30859 2.03516 0.896915 0.153792 -0.334834 -0.929642 255 0 0 255 
2.31641 2.03516 0.898834 0.150761 -0.334349 -0.930313 255 0 0 255 
2.32422 2.03516 0.899894 0.14233 -0.297903 -0.943926 255 0 0 255 
2.33203 2.03516 0.901242 0.180426 -0.30864 -0.93391 255 0 0 255 
2.13722 1.99609 1.41016 -0.941985 -0.160456 -0.29482 255 0 0 255 
2.13672 1.99983 1.41016 -0.970541 -0.0653189 -0.231914 255 0 0 255 
2.13672 1.99609 1.41158 -0.941985 -0.160456 -0.29482 255 0 0 255 
2.56373 1.98047 1.44141 0.138439 -0.726617 -0.67295 255 0 0 255 
2.56641 1.98122 1.44141 0.150565 -0.737962 -0.657832 255 0 0 255 
2.56641 1.98047 1.44225 0.150551 -0.740403 -0.655086 255 0 0 255 
2.57422 1.98243 1.44141 0.14591 -0.746994 -0.648622 255 0 0 255 
2.57422 1.98047 1.4436 0.149517 -0.717352 -0.680478 255 0 0 255 
2.58203 1.98494 1.44141 0.259052 -0.726587 -0.636368 255 0 0 255 
2.58203 1.98047 1.44508 0.266465 -0.724619 -0.63555 255 0 0 255 
2.58984 1.98785 1.44141 0.225452 -0.766683 -0.601139 255 0 0 255 
2.22109 2.04297 0.910156 -0.930411 0.181564 -0.318386 255 0 0 255 
2.46422 1.97266 1.44141 0.0878226 -0.773709 -0.627425 255 0 0 255 
2.46484 1.97276 1.44141 0.0878226 -0.773709 -0.627425 255 0 0 255 
2.46484 1.97266 1.44152 0.0869678 -0.771742 -0.629961 255 0 0 255 
2.47266 1.97316 1.44141 0.0740115 -0.794881 -0.602235 255 0 0 255 
2.47266 1.97266 1.44206 0.065709 -0.79053 -0.608888 255 0 0 255 
2.48047 1.97424 1.44141 0.0703695 -0.787033 -0.612884 255 0 0 255 
2.48047 1.97266 1.44346 0.0666134 -0.779252 -0.623161 255 0 0 255 
2.48828 1.97438 1.44141 -0.0445644 -0.789548 -0.612068 255 0 0 255 
2.48828 1.97266 1.44401 -0.0231151 -0.791872 -0.61025 255 0 0 255 
2.49609 1.97338 1.44141 0.0536255 -0.772255 -0.633045 255 0 0 255 
2.49609 1.97266 1.44228 0.0340109 -0.785741 -0.61762 255 0 0 255 
2.25391 2.05824 0.886719 -0.177622 0.584565 -0.791666 255 0 0 255 
2.28527 2.05078 0.886719 0.163192 -0.204712 -0.965123 255 0 0 255 
2.29297 2.05549 0.886719 0.118638 -0.202451 -0.972079 255 0 0 255 
2.29297 2.05078 0.88864 0.184545 -0.304196 -0.934563 255 0 0 255 
2.30078 2.05078 0.889669 0.173209 -0.363299 -0.91543 255 0 0 255 
2.30859 2.05078 0.891545 0.18782 -0.369382 -0.910099 255 0 0 255 
2.31641 2.05078 0.893123 0.150396 -0.351769 -0.923926 255 0 0 255 
2.32422 2.05078 0.894121 0.170262 -0.343067 -0.923751 255 0 0 255 
2.43063 1.99609 1.41016 0.0616178 -0.825936 -0.560386 255 0 0 255 
2.43359 1.99647 1.41016 0.0616178 -0.825936 -0.560386 255 0 0 255 
2.43359 1.99609 1.41071 0.0483847 -0.814074 -0.578742 255 0 0 255 
2.44904 1.99609 1.41016 0.0377372 -0.825818 -0.562673 255 0 0 255 
2.44141 1.9965 1.41016 -0.0219939 -0.817219 -0.575907 255 0 0 255 
2.44141 1.99609 1.41071 -0.0219939 -0.817219 -0.575907 255 0 0 255 
2.44928 1.99609 1.41016 0.0377372 -0.825818 -0.562673 255 0 0 255 
2.45703 1.99728 1.41016 0.108892 -0.819481 -0.562667 255 0 0 255 
2.45703 1.99609 1.41164 0.11347 -0.79421 -0.596955 255 0 0 255 
2.46484 1.99797 1.41016 0.0168484 -0.854993 -0.518366 255 0 0 255 
2.46484 1.99609 1.41367 0.0244439 -0.801521 -0.597467 255 0 0 255 
2.47266 1.99755 1.41016 0.0336418 -0.858253 -0.512124 255 0 0 255 
2.47266 1.99609 1.41204 0.0348239 -0.848338 -0.528309 255 0 0 255 
2.48047 1.99795 1.41016 0.108299 -0.866081 -0.488031 255 0 0 255 
2.48047 1.99609 1.41442 0.12711 -0.817301 -0.562017 255 0 0 255 
2.48828 1.99917 1.41016 0.0799947 -0.868566 -0.489075 255 0 0 255 
2.48828 1.99609 1.41637 0.0685202 -0.82985 -0.553764 255 0 0 255 
2.49609 1.99977 1.41016 0.0299721 -0.857445 -0.513702 255 0 0 255 
2.49609 1.99609 1.4162 0.0409231 -0.820174 -0.570648 255 0 0 255 
2.37808 2.01172 1.37891 0.177187 -0.868371 -0.463181 255 0 0 255 
2.37891 2.01184 1.37891 0.178483 -0.869181 -0.461159 255 0 0 255 
2.37891 2.01172 1.37912 0.178483 -0.869181 -0.461159 255 0 0 255 
2.38672 2.0137 1.37891 0.119141 -0.883882 -0.452281 255 0 0 255 
2.38672 2.01172 1.38285 0.111339 -0.878333 -0.464902 255 0 0 255 
2.39453 2.01393 1.37891 0.0219329 -0.875175 -0.483309 255 0 0 255 
2.39453 2.01172 1.38272 0.000705046 -0.86759 -0.49728 255 0 0 255 
2.40234 2.01391 1.37891 0.0114311 -0.874293 -0.485263 255 0 0 255 
2.40234 2.01172 1.38286 0.0104586 -0.876626 -0.481059 255 0 0 255 
2.41016 2.01451 1.37891 0.0333736 -0.872894 -0.486767 255 0 0 255 
2.41016 2.01172 1.38288 0.0352355 -0.871593 -0.488963 255 0 0 255 
2.41797 2.01406 1.37891 0.00510234 -0.880579 -0.473872 255 0 0 255 
2.41797 2.01172 1.38387 0.0186383 -0.870873 -0.491154 255 0 0 255 
2.42578 2.01461 1.37891 0.0475775 -0.88055 -0.471559 255 0 0 255 
2.42578 2.01172 1.3835 0.035714 -0.889073 -0.45637 255 0 0 255 
2.43359 2.01462 1.37891 0.043685 -0.883496 -0.466397 255 0 0 255 
2.43359 2.01172 1.38547 0.0431811 -0.874855 -0.482457 255 0 0 255 
2.44141 2.01539 1.37891 0.0438037 -0.877632 -0.477329 255 0 0 255 
2.44141 2.01172 1.38518 0.0290719 -0.862181 -0.505765 255 0 0 255 
2.44922 2.01553 1.37891 0.0367244 -0.868041 -0.495132 255 0 0 255 
2.44922 2.01172 1.38611 0.0237464 -0.874794 -0.483913 255 0 0 255 
2.45703 2.0154 1.37891 0.0325473 -0.857616 -0.51326 255 0 0 255 
2.45703 2.01172 1.38592 0.029579 -0.87139 -0.489698 255 0 0 255 
2.46484 2.01642 1.37891 0.0485647 -0.849129 -0.525948 255 0 0 255 
2.46484 2.01172 1.38666 0.0154733 -0.857424 -0.514378 255 0 0 255 
2.47266 2.01718 1.37891 0.0364533 -0.836808 -0.546282 255 0 0 255 
2.47266 2.01172 1.38579 0.0289516 -0.845413 -0.533328 255 0 0 255 
2.48047 2.01718 1.37891 -0.007597 -0.855313 -0.518056 255 0 0 255 
2.48828 2.01661 1.37891 0.0889007 -0.85554 -0.510047 255 0 0 255 
2.49609 2.01872 1.37891 0.0611636 -0.871338 -0.486856 255 0 0 255 
2.13495 1.98828 1.42578 -0.988721 -0.0568784 -0.138549 255 0 0 255 
2.22995 2.02734 0.894531 -0.712671 -0.193991 -0.674142 255 0 0 255 
2.13389 1.98047 1.43359 -0.978956 -0.0583784 -0.195542 255 0 0 255 
2.22256 2.05078 0.910156 -0.91518 0.223619 -0.33532 255 0 0 255 
2.22266 2.05114 0.910156 -0.91518 0.223619 -0.33532 255 0 0 255 
2.21965 2.03516 0.910156 -0.974932 -0.00226692 -0.22249 255 0 0 255 
2.14259 2.01172 1.38672 -0.941959 -0.149976 -0.300366 255 0 0 255 
2.25641 2.05859 0.886719 -0.115953 0.56849 -0.814478 255 0 0 255 
2.25391 2.05859 0.886898 -0.154242 0.623182 -0.766716 255 0 0 255 
2.26172 2.05889 0.886719 -0.0662474 0.600778 -0.796666 255 0 0 255 
2.26953 2.06009 0.886719 -0.0817963 0.545242 -0.834279 255 0 0 255 
2.27734 2.06087 0.886719 -0.0291673 0.421732 -0.906251 255 0 0 255 
2.28516 2.06043 0.886719 0.0396318 0.149283 -0.988 255 0 0 255 
2.29951 2.05859 0.886719 0.0859615 0.109666 -0.990244 255 0 0 255 
2.29297 2.0599 0.886719 0.0210753 0.205513 -0.978427 255 0 0 255 
2.30078 2.05859 0.886973 0.0859615 0.109666 -0.990244 255 0 0 255 
2.30859 2.05859 0.888392 0.202522 -0.00846283 -0.979241 255 0 0 255 
2.31641 2.05859 0.889978 0.147057 -0.00147886 -0.989127 255 0 0 255 
2.32422 2.05859 0.89145 0.175827 -0.0516069 -0.983067 255 0 0 255 
2.33203 2.05859 0.892942 0.109465 -0.113161 -0.987528 255 0 0 255 
2.33984 2.05859 0.894155 0.121139 -0.166418 -0.978586 255 0 0 255 
2.30782 2.04297 0.894531 0.155289 -0.324414 -0.933081 255 0 0 255 
2.30859 2.04332 0.894531 0.156698 -0.321822 -0.933743 255 0 0 255 
2.30859 2.04297 0.894673 0.155289 -0.324415 -0.933081 255 0 0 255 
2.31641 2.04693 0.894531 0.151182 -0.355021 -0.922553 255 0 0 255 
2.31641 2.04297 0.895837 0.154685 -0.327148 -0.932227 255 0 0 255 
2.32422 2.04986 0.894531 0.170141 -0.343339 -0.923672 255 0 0 255 
2.32422 2.04297 0.897259 0.173092 -0.344082 -0.922847 255 0 0 255 
2.33203 2.04297 0.898879 0.168138 -0.3237 -0.9311 255 0 0 255 
2.33984 2.04297 0.899911 0.159181 -0.32768 -0.931283 255 0 0 255 
2.34766 2.04297 0.901399 0.181294 -0.354824 -0.917187 255 0 0 255 
2.22502 2.05859 0.910156 -0.794299 0.414303 -0.444344 255 0 0 255 
2.22266 2.05859 0.915383 -0.860789 0.36937 -0.350155 255 0 0 255 
2.23047 2.06423 0.910156 -0.570195 0.68258 -0.457124 255 0 0 255 
2.13479 1.97266 1.43359 -0.960314 -0.123878 -0.249904 255 0 0 255 
2.38079 2.00391 1.39453 0.174064 -0.833233 -0.52481 255 0 0 255 
2.38672 2.00472 1.39453 0.0978434 -0.84893 -0.51937 255 0 0 255 
2.38672 2.00391 1.3962 0.0944615 -0.843639 -0.528536 255 0 0 255 
2.39453 2.00502 1.39453 0.00534898 -0.873997 -0.485901 255 0 0 255 
2.39453 2.00391 1.39688 0.0244829 -0.856718 -0.515204 255 0 0 255 
2.40234 2.00502 1.39453 0.00755061 -0.874165 -0.485571 255 0 0 255 
2.40234 2.00391 1.39649 0.00287131 -0.867093 -0.498138 255 0 0 255 
2.41016 2.00546 1.39453 0.0420438 -0.871841 -0.487981 255 0 0 255 
2.41016 2.00391 1.39718 0.0486883 -0.869434 -0.491644 255 0 0 255 
2.41797 2.00563 1.39453 0.0318072 -0.876831 -0.479746 255 0 0 255 
2.41797 2.00391 1.39792 0.0224838 -0.845473 -0.533544 255 0 0 255 
2.42578 2.00635 1.39453 0.0261233 -0.853109 -0.521079 255 0 0 255 
2.42578 2.00391 1.39763 0.0156226 -0.863158 -0.504692 255 0 0 255 
2.43359 2.0063 1.39453 0.0140417 -0.858643 -0.512382 255 0 0 255 
2.43359 2.00391 1.39836 0.0209502 -0.8458 -0.533089 255 0 0 255 
2.44141 2.00575 1.39453 0.0278514 -0.868199 -0.495435 255 0 0 255 
2.44141 2.00391 1.39831 0.0316088 -0.869053 -0.493709 255 0 0 255 
2.44922 2.00683 1.39453 0.0594216 -0.858326 -0.509652 255 0 0 255 
2.44922 2.00391 1.39928 0.0421015 -0.837601 -0.544658 255 0 0 255 
2.45703 2.00697 1.39453 -0.0325292 -0.861498 -0.506718 255 0 0 255 
2.45703 2.00391 1.39958 -0.028931 -0.857929 -0.512953 255 0 0 255 
2.46484 2.00612 1.39453 0.0227852 -0.850938 -0.524772 255 0 0 255 
2.46484 2.00391 1.39815 0.0174615 -0.868575 -0.495249 255 0 0 255 
2.47266 2.00729 1.39453 0.0978837 -0.868175 -0.486508 255 0 0 255 
2.47266 2.00391 1.39996 0.0816576 -0.845333 -0.527963 255 0 0 255 
2.48047 2.00837 1.39453 0.0581139 -0.857849 -0.510606 255 0 0 255 
2.48047 2.00391 1.40052 0.062991 -0.834457 -0.547461 255 0 0 255 
2.48828 2.0084 1.39453 0.0449653 -0.859246 -0.509582 255 0 0 255 
2.48828 2.00391 1.40167 0.0874189 -0.844453 -0.528448 255 0 0 255 
2.49609 2.00866 1.39453 0.0396841 -0.869817 -0.491775 255 0 0 255 
2.22641 2.01953 0.902344 -0.809893 -0.399195 -0.429786 255 0 0 255 
2.21828 2.04297 0.917969 -0.955729 0.112582 -0.271858 255 0 0 255 
2.58561 1.97266 1.45703 0.327592 -0.747139 -0.578332 255 0 0 255 
2.58984 1.97452 1.45703 0.30074 -0.74259 -0.598427 255 0 0 255 
2.58984 1.97266 1.4595 0.288265 -0.769684 -0.56964 255 0 0 255 
2.59766 1.97738 1.45703 0.270002 -0.762019 -0.58858 255 0 0 255 
2.59766 1.97266 1.4633 0.26024 -0.754974 -0.601905 255 0 0 255 
2.60547 1.98003 1.45703 0.441755 -0.702885 -0.557498 255 0 0 255 
2.59192 1.98828 1.44141 0.224758 -0.777207 -0.587735 255 0 0 255 
2.59766 1.98936 1.44141 0.2443 -0.794138 -0.556472 255 0 0 255 
2.59766 1.98828 1.44296 0.269681 -0.776754 -0.569145 255 0 0 255 
2.60547 1.99283 1.44141 0.361594 -0.788588 -0.497372 255 0 0 255 
2.60547 1.98828 1.44778 0.378986 -0.716631 -0.585499 255 0 0 255 
2.13848 2.00391 1.40234 -0.964391 -0.102149 -0.243956 255 0 0 255 
2.13672 2.00391 1.40849 -0.983581 -0.019067 -0.17946 255 0 0 255 
2.33793 2.03516 0.902344 0.174883 -0.339216 -0.92431 255 0 0 255 
2.33984 2.03623 0.902344 0.189606 -0.353675 -0.915949 255 0 0 255 
2.33984 2.03516 0.902742 0.189606 -0.353675 -0.915949 255 0 0 255 
2.34766 2.04067 0.902344 0.168296 -0.332243 -0.928058 255 0 0 255 
2.34766 2.03516 0.904531 0.166857 -0.341221 -0.925055 255 0 0 255 
2.35547 2.03516 0.905378 0.151085 -0.339747 -0.928303 255 0 0 255 
2.36328 2.03516 0.907081 0.172787 -0.352236 -0.919823 255 0 0 255 
2.37109 2.03516 0.908438 0.169425 -0.362863 -0.916311 255 0 0 255 
2.37891 2.03516 0.909693 0.163628 -0.357443 -0.919489 255 0 0 255 
2.5223 1.99609 1.41797 0.0840364 -0.827794 -0.554702 255 0 0 255 
2.52734 1.99669 1.41797 0.0697615 -0.840576 -0.537183 255 0 0 255 
2.52734 1.99609 1.41881 0.051069 -0.822964 -0.565793 255 0 0 255 
2.53516 1.99699 1.41797 -0.00607665 -0.847368 -0.530971 255 0 0 255 
2.53516 1.99609 1.41941 0.012375 -0.825533 -0.564218 255 0 0 255 
2.54297 1.99647 1.41797 0.0291255 -0.861481 -0.506954 255 0 0 255 
2.54297 1.99609 1.41869 0.0571792 -0.851061 -0.521944 255 0 0 255 
2.55078 1.9975 1.41797 0.0646518 -0.866724 -0.49458 255 0 0 255 
2.55078 1.99609 1.42065 0.0574738 -0.855109 -0.515253 255 0 0 255 
2.55859 1.99748 1.41797 0.0307122 -0.86289 -0.504458 255 0 0 255 
2.55859 1.99609 1.42064 0.0305395 -0.858047 -0.512662 255 0 0 255 
2.56641 1.99796 1.41797 0.0334695 -0.865383 -0.499991 255 0 0 255 
2.56641 1.99609 1.42135 0.0409314 -0.863434 -0.502799 255 0 0 255 
2.57422 1.99788 1.41797 0.0929872 -0.887784 -0.450768 255 0 0 255 
2.57422 1.99609 1.42156 0.104219 -0.888632 -0.446623 255 0 0 255 
2.58203 1.99922 1.41797 0.213837 -0.867552 -0.44903 255 0 0 255 
2.58203 1.99609 1.42454 0.202276 -0.854123 -0.479123 255 0 0 255 
2.58984 2.00201 1.41797 0.243258 -0.853486 -0.460854 255 0 0 255 
2.59766 2.00376 1.41797 0.244454 -0.862398 -0.443296 255 0 0 255 
2.13564 1.99609 1.41797 -0.990499 -0.0343974 -0.133152 255 0 0 255 
2.58851 1.98047 1.44922 0.30002 -0.71785 -0.628235 255 0 0 255 
2.58984 1.98123 1.44922 0.308561 -0.725085 -0.615663 255 0 0 255 
2.58984 1.98047 1.45016 0.30301 -0.738901 -0.601839 255 0 0 255 
2.59766 1.98384 1.44922 0.286013 -0.758903 -0.585033 255 0 0 255 
2.59766 1.98047 1.45293 0.260452 -0.740678 -0.619323 255 0 0 255 
2.60547 1.98713 1.44922 0.378239 -0.708793 -0.595439 255 0 0 255 
2.60547 1.98047 1.45631 0.368817 -0.694814 -0.617421 255 0 0 255 
2.47744 2.01172 1.38672 0.068848 -0.855134 -0.513815 255 0 0 255 
2.48047 2.01225 1.38672 0.0857485 -0.864102 -0.495958 255 0 0 255 
2.48047 2.01172 1.38762 0.0857485 -0.864102 -0.495958 255 0 0 255 
2.48828 2.01265 1.38672 0.0646322 -0.876036 -0.477894 255 0 0 255 
2.48828 2.01172 1.38828 0.0507338 -0.882184 -0.468164 255 0 0 255 
2.49609 2.01365 1.38672 0.0659612 -0.849586 -0.523309 255 0 0 255 
2.49609 2.01172 1.38951 0.0387491 -0.845498 -0.532571 255 0 0 255 
2.32591 2.05078 0.894531 0.170262 -0.343067 -0.923751 255 0 0 255 
2.33203 2.05455 0.894531 0.175377 -0.347308 -0.921206 255 0 0 255 
2.33203 2.05078 0.896063 0.184093 -0.353372 -0.91719 255 0 0 255 
2.33984 2.05771 0.894531 0.121139 -0.166418 -0.978586 255 0 0 255 
2.33984 2.05078 0.897306 0.1423 -0.343186 -0.928426 255 0 0 255 
2.34766 2.05078 0.898337 0.152681 -0.351998 -0.923464 255 0 0 255 
2.35547 2.05078 0.899737 0.153822 -0.365192 -0.918136 255 0 0 255 
2.36328 2.05078 0.900947 0.171789 -0.360649 -0.916745 255 0 0 255 
2.13399 1.98828 1.43359 -0.991413 0.0170702 -0.129648 255 0 0 255 
2.22285 2.02734 0.902344 -0.854169 -0.222569 -0.469956 255 0 0 255 
2.22266 2.02843 0.902344 -0.870267 -0.176827 -0.459747 255 0 0 255 
2.22266 2.02734 0.902693 -0.935225 -0.187075 -0.300595 255 0 0 255 
2.22002 2.05078 0.917969 -0.927993 0.218471 -0.301827 255 0 0 255 
2.25391 2.01953 0.892821 0.197726 -0.297247 -0.934103 255 0 0 255 
2.21846 2.03516 0.917969 -0.969878 -0.0905606 -0.226132 255 0 0 255 
2.13239 1.98047 1.44141 -0.993532 0.011051 -0.113018 255 0 0 255 
2.13924 2.01172 1.39453 -0.957554 -0.043441 -0.284963 255 0 0 255 
2.25391 2.02734 0.890104 0.161701 -0.325701 -0.931543 255 0 0 255 
2.26172 2.02734 0.891837 0.162622 -0.340382 -0.926118 255 0 0 255 
2.26953 2.02734 0.893139 0.162945 -0.312333 -0.935894 255 0 0 255 
2.13285 1.97266 1.44141 -0.973754 -0.0583442 -0.219998 255 0 0 255 
2.49105 2.00391 1.40234 0.0938164 -0.861572 -0.498892 255 0 0 255 
2.49609 2.00455 1.40234 0.0522229 -0.865248 -0.498617 255 0 0 255 
2.49609 2.00391 1.40353 0.0517999 -0.865544 -0.498147 255 0 0 255 
2.22164 2.05859 0.917969 -0.859282 0.355816 -0.367463 255 0 0 255 
2.22266 2.06006 0.917969 -0.859277 0.358604 -0.364754 255 0 0 255 
2.3527 2.04297 0.902344 0.14863 -0.34997 -0.924895 255 0 0 255 
2.35547 2.0443 0.902344 0.140595 -0.34022 -0.929776 255 0 0 255 
2.35547 2.04297 0.902871 0.139529 -0.343068 -0.92889 255 0 0 255 
2.36328 2.0469 0.902344 0.161046 -0.333966 -0.928726 255 0 0 255 
2.36328 2.04297 0.903927 0.155215 -0.344447 -0.925886 255 0 0 255 
2.37109 2.04297 0.905213 0.172186 -0.343325 -0.923298 255 0 0 255 
2.37891 2.04297 0.906939 0.168999 -0.350856 -0.921053 255 0 0 255 
2.38672 2.04297 0.90824 0.140124 -0.358723 -0.922867 255 0 0 255 
2.39453 2.04297 0.909177 0.155115 -0.363207 -0.918705 255 0 0 255 
2.25391 2.06619 0.894531 -0.239099 0.748195 -0.618899 255 0 0 255 
2.34177 2.05859 0.894531 0.108432 -0.178656 -0.977918 255 0 0 255 
2.34766 2.06184 0.894531 0.122811 -0.168994 -0.977936 255 0 0 255 
2.34766 2.05859 0.895591 0.150976 -0.237246 -0.959646 255 0 0 255 
2.35547 2.05859 0.896478 0.139939 -0.292783 -0.945883 255 0 0 255 
2.36328 2.05859 0.897999 0.159712 -0.324866 -0.932177 255 0 0 255 
2.37109 2.05859 0.899259 0.169362 -0.362382 -0.916513 255 0 0 255 
2.37891 2.05859 0.901014 0.137677 -0.375855 -0.916394 255 0 0 255 
2.38672 2.05859 0.901704 0.154403 -0.346938 -0.925091 255 0 0 255 
2.22303 2.01953 0.910156 -0.87825 -0.398847 -0.263815 255 0 0 255 
2.22266 2.02039 0.910156 -0.87825 -0.398847 -0.263815 255 0 0 255 
2.22266 2.01953 0.911361 -0.885739 -0.426702 -0.182734 255 0 0 255 
2.21603 2.04297 0.925781 -0.973417 -0.00918521 -0.228856 255 0 0 255 
2.21484 2.04297 0.930503 -0.968999 -0.00610483 -0.246991 255 0 0 255 
2.50391 2.03516 0.930327 0.171412 -0.38112 -0.908496 255 0 0 255 
2.51172 2.03516 0.931666 0.138627 -0.371196 -0.918148 255 0 0 255 
2.51953 2.03516 0.932785 0.115473 -0.348472 -0.930179 255 0 0 255 
2.60174 1.97266 1.46484 0.354622 -0.740727 -0.570584 255 0 0 255 
2.60547 1.97377 1.46484 0.442123 -0.697896 -0.563443 255 0 0 255 
2.60547 1.97266 1.46639 0.449576 -0.667042 -0.594084 255 0 0 255 
2.13475 1.99609 1.42578 -0.992732 -0.0169685 -0.119142 255 0 0 255 
2.50391 2.00896 1.39453 0.0318495 -0.870966 -0.49031 255 0 0 255 
2.51172 2.00905 1.39453 0.038925 -0.871011 -0.489719 255 0 0 255 
2.51953 2.00987 1.39453 0.0655061 -0.856416 -0.512113 255 0 0 255 
2.52734 2.0106 1.39453 0.0511035 -0.866134 -0.497193 255 0 0 255 
2.53516 2.01063 1.39453 0.0184065 -0.873498 -0.48648 255 0 0 255 
2.54297 2.01061 1.39453 0.0644184 -0.844697 -0.531355 255 0 0 255 
2.55078 2.01155 1.39453 0.0581854 -0.864638 -0.499014 255 0 0 255 
2.57422 2.01143 1.39453 0.0466367 -0.824191 -0.564388 255 0 0 255 
2.1365 2.00391 1.41016 -0.983581 -0.019067 -0.17946 255 0 0 255 
2.13672 2.01165 1.41016 -0.988592 0.0956171 -0.116376 255 0 0 255 
2.58444 1.99609 1.42578 0.203761 -0.85532 -0.47635 255 0 0 255 
2.58984 1.99743 1.42578 0.246991 -0.847426 -0.469962 255 0 0 255 
2.58984 1.99609 1.42844 0.246771 -0.829551 -0.500948 255 0 0 255 
2.59766 1.99994 1.42578 0.259078 -0.851251 -0.456344 255 0 0 255 
2.59766 1.99609 1.43232 0.246711 -0.810008 -0.531997 255 0 0 255 
2.60547 2.00223 1.42578 0.276808 -0.831821 -0.481094 255 0 0 255 
2.60678 1.98828 1.44922 0.391747 -0.721476 -0.57097 255 0 0 255 
2.61328 1.99158 1.44922 0.500009 -0.740517 -0.449028 255 0 0 255 
2.61328 1.98828 1.45343 0.580327 -0.597317 -0.553564 255 0 0 255 
2.38122 2.03516 0.910156 0.166721 -0.354725 -0.919986 255 0 0 255 
2.38672 2.03804 0.910156 0.151117 -0.356242 -0.922093 255 0 0 255 
2.38672 2.03516 0.911303 0.158675 -0.363055 -0.918158 255 0 0 255 
2.39453 2.04064 0.910156 0.145007 -0.367166 -0.918783 255 0 0 255 
2.39453 2.03516 0.912533 0.148286 -0.369936 -0.917147 255 0 0 255 
2.40234 2.03516 0.913708 0.173575 -0.357713 -0.917558 255 0 0 255 
2.41016 2.03516 0.915245 0.170909 -0.372419 -0.912192 255 0 0 255 
2.41797 2.03516 0.916761 0.153604 -0.363195 -0.918964 255 0 0 255 
2.42578 2.03516 0.91796 0.137381 -0.345838 -0.928182 255 0 0 255 
2.60586 1.98047 1.45703 0.441755 -0.702885 -0.557498 255 0 0 255 
2.61328 1.98614 1.45703 0.633843 -0.64447 -0.427669 255 0 0 255 
2.50391 2.05078 0.924181 0.161481 -0.362313 -0.917962 255 0 0 255 
2.51172 2.05078 0.925459 0.124449 -0.342054 -0.931403 255 0 0 255 
2.36931 2.05078 0.902344 0.175937 -0.34765 -0.92097 255 0 0 255 
2.37109 2.05176 0.902344 0.17579 -0.347905 -0.920902 255 0 0 255 
2.37109 2.05078 0.902757 0.175937 -0.34765 -0.92097 255 0 0 255 
2.37891 2.05499 0.902344 0.14068 -0.383007 -0.91297 255 0 0 255 
2.37891 2.05078 0.903899 0.141631 -0.345323 -0.927735 255 0 0 255 
2.38672 2.05712 0.902344 0.149288 -0.356236 -0.922393 255 0 0 255 
2.38672 2.05078 0.90515 0.1425 -0.366283 -0.919527 255 0 0 255 
2.39453 2.05078 0.906049 0.175674 -0.343412 -0.922609 255 0 0 255 
2.40234 2.05078 0.907974 0.159112 -0.356108 -0.920799 255 0 0 255 
2.41016 2.05078 0.908839 0.138356 -0.353747 -0.925052 255 0 0 255 
2.41797 2.05078 0.910125 0.157344 -0.345595 -0.925098 255 0 0 255 
2.21754 2.05078 0.925781 -0.935589 0.181382 -0.30294 255 0 0 255 
2.21484 2.05078 0.933495 -0.938712 0.16158 -0.304486 255 0 0 255 
2.21694 2.03516 0.925781 -0.970277 -0.151673 -0.188567 255 0 0 255 
2.13307 1.98828 1.44141 -0.995681 0.0554204 -0.0744853 255 0 0 255 
2.50391 2.04645 0.925781 0.158252 -0.353218 -0.922059 255 0 0 255 
2.50391 2.04297 0.927112 0.160819 -0.354034 -0.921302 255 0 0 255 
2.51172 2.05 0.925781 0.124449 -0.342054 -0.931403 255 0 0 255 
2.51172 2.04297 0.928405 0.143581 -0.36999 -0.917873 255 0 0 255 
2.51953 2.04297 0.929747 0.123969 -0.375103 -0.918656 255 0 0 255 
2.52734 2.04297 0.930603 0.139405 -0.369461 -0.91873 255 0 0 255 
2.53516 2.04297 0.932088 0.159845 -0.370766 -0.914867 255 0 0 255 
2.54297 2.04297 0.933378 0.123251 -0.368246 -0.921523 255 0 0 255 
2.22111 2.02734 0.910156 -0.960606 -0.208126 -0.184176 255 0 0 255 
2.2612 2.01953 0.894531 0.14934 -0.290937 -0.945015 255 0 0 255 
2.26172 2.01989 0.894531 0.146152 -0.2953 -0.94416 255 0 0 255 
2.26172 2.01953 0.894645 0.14934 -0.290937 -0.945015 255 0 0 255 
2.26953 2.0217 0.894531 0.147856 -0.291944 -0.944938 255 0 0 255 
2.26953 2.01953 0.895109 0.146944 -0.294542 -0.944273 255 0 0 255 
2.27734 2.01953 0.897197 0.193477 -0.296295 -0.935295 255 0 0 255 
2.28516 2.01953 0.898288 0.177777 -0.312462 -0.933147 255 0 0 255 
2.29297 2.01953 0.899886 0.184379 -0.316767 -0.93041 255 0 0 255 
2.30078 2.01953 0.901393 0.186377 -0.327361 -0.926336 255 0 0 255 
2.13183 1.98047 1.44922 -0.997992 0.0494469 -0.0395913 255 0 0 255 
2.27715 2.02734 0.894531 0.207263 -0.305015 -0.92952 255 0 0 255 
2.27734 2.02744 0.894531 0.20124 -0.313492 -0.928022 255 0 0 255 
2.27734 2.02734 0.894564 0.207263 -0.305015 -0.92952 255 0 0 255 
2.28516 2.03262 0.894531 0.163726 -0.334952 -0.927901 255 0 0 255 
2.28516 2.02734 0.896277 0.160193 -0.299903 -0.940423 255 0 0 255 
2.29297 2.03498 0.894531 0.147327 -0.343529 -0.927514 255 0 0 255 
2.29297 2.02734 0.897444 0.16675 -0.3189 -0.933004 255 0 0 255 
2.30078 2.02734 0.899161 0.166815 -0.335138 -0.927284 255 0 0 255 
2.30859 2.02734 0.900153 0.181292 -0.349248 -0.919326 255 0 0 255 
2.31641 2.02734 0.901805 0.114064 -0.336429 -0.934775 255 0 0 255 
2.32422 2.02734 0.902168 0.147377 -0.334545 -0.930784 255 0 0 255 
2.13776 2.01172 1.40234 -0.984049 0.0867939 -0.155289 255 0 0 255 
2.13195 1.97266 1.44922 -0.989123 0.0462582 -0.139627 255 0 0 255 
2.21921 2.05859 0.925781 -0.911668 0.274212 -0.306055 255 0 0 255 
2.50391 2.0182 1.37891 -0.00405327 -0.87237 -0.48883 255 0 0 255 
2.51172 2.01815 1.37891 0.0325002 -0.859403 -0.510265 255 0 0 255 
2.51953 2.0188 1.37891 0.000829119 -0.857185 -0.515007 255 0 0 255 
2.52734 2.01826 1.37891 0.0380816 -0.871096 -0.489634 255 0 0 255 
2.53516 2.01922 1.37891 0.0614128 -0.884294 -0.462875 255 0 0 255 
2.54297 2.0193 1.37891 0.0308507 -0.89646 -0.44205 255 0 0 255 
2.38947 2.05859 0.902344 0.155991 -0.33723 -0.928409 255 0 0 255 
2.39453 2.06175 0.902344 0.160976 -0.338029 -0.927267 255 0 0 255 
2.39453 2.05859 0.903578 0.16046 -0.341533 -0.926071 255 0 0 255 
2.40234 2.0643 0.902344 0.0803037 -0.084432 -0.993188 255 0 0 255 
2.40234 2.05859 0.904688 0.1446 -0.331362 -0.932357 255 0 0 255 
2.41016 2.05859 0.905829 0.16043 -0.355971 -0.920623 255 0 0 255 
2.41797 2.05859 0.907272 0.163541 -0.332442 -0.928836 255 0 0 255 
2.42578 2.05859 0.908721 0.159232 -0.331277 -0.93 255 0 0 255 
2.43359 2.05859 0.909976 0.182745 -0.343226 -0.921304 255 0 0 255 
2.2217 2.01953 0.917969 -0.908252 -0.401023 -0.119412 255 0 0 255 
2.21406 2.04297 0.933594 -0.987359 -0.0516165 -0.149858 255 0 0 255 
2.39978 2.04297 0.910156 0.168036 -0.358828 -0.918154 255 0 0 255 
2.40234 2.04446 0.910156 0.155779 -0.350862 -0.923379 255 0 0 255 
2.40234 2.04297 0.910697 0.155853 -0.352573 -0.922715 255 0 0 255 
2.41016 2.04742 0.910156 0.1394 -0.35494 -0.924438 255 0 0 255 
2.41016 2.04297 0.91201 0.154116 -0.369902 -0.916199 255 0 0 255 
2.41797 2.0507 0.910156 0.15212 -0.354508 -0.922596 255 0 0 255 
2.41797 2.04297 0.913225 0.159921 -0.383061 -0.909774 255 0 0 255 
2.42578 2.04297 0.914801 0.150936 -0.380226 -0.912495 255 0 0 255 
2.43359 2.04297 0.91626 0.148446 -0.360411 -0.920906 255 0 0 255 
2.44141 2.04297 0.917347 0.170484 -0.338889 -0.925251 255 0 0 255 
2.50391 2.06553 0.917969 0.0929785 -0.0807499 -0.992388 255 0 0 255 
2.50391 2.05859 0.92074 0.157637 -0.366976 -0.916777 255 0 0 255 
2.51172 2.05859 0.922592 0.131455 -0.389144 -0.911749 255 0 0 255 
2.51953 2.05859 0.923115 0.12066 -0.3769 -0.918361 255 0 0 255 
2.52734 2.05859 0.924609 0.159503 -0.379971 -0.911143 255 0 0 255 
2.53516 2.05859 0.92578 0.121328 -0.351272 -0.928379 255 0 0 255 
2.52638 2.03516 0.933594 0.146177 -0.359043 -0.921803 255 0 0 255 
2.52734 2.03541 0.933594 0.145281 -0.361083 -0.921148 255 0 0 255 
2.52734 2.03516 0.933709 0.145281 -0.361083 -0.921148 255 0 0 255 
2.53516 2.03907 0.933594 0.160915 -0.362302 -0.918065 255 0 0 255 
2.53516 2.03516 0.935164 0.160248 -0.361419 -0.91853 255 0 0 255 
2.54297 2.04239 0.933594 0.123251 -0.368246 -0.921523 255 0 0 255 
2.54297 2.03516 0.93643 0.128204 -0.358555 -0.924663 255 0 0 255 
2.55078 2.03516 0.937508 0.124297 -0.377452 -0.917649 255 0 0 255 
2.55859 2.03516 0.938289 0.133254 -0.362075 -0.922575 255 0 0 255 
2.56641 2.03516 0.939905 0.13534 -0.372668 -0.918042 255 0 0 255 
2.57422 2.03516 0.940218 0.121937 -0.419745 -0.899414 255 0 0 255 
2.50391 2.01953 0.936354 0.147965 -0.341909 -0.928011 255 0 0 255 
2.51172 2.01953 0.937486 0.141603 -0.359962 -0.922158 255 0 0 255 
2.51953 2.01953 0.93868 0.149261 -0.377234 -0.914011 255 0 0 255 
2.52734 2.01953 0.939539 0.134318 -0.370244 -0.919172 255 0 0 255 
2.53516 2.01953 0.940989 0.156581 -0.368486 -0.916352 255 0 0 255 
2.13415 1.99609 1.43359 -0.996204 0.0287898 -0.0821476 255 0 0 255 
2.61007 1.97266 1.47266 0.67276 -0.575597 -0.464847 255 0 0 255 
2.61328 1.97469 1.47266 0.665714 -0.617967 -0.41826 255 0 0 255 
2.61328 1.97266 1.47525 0.71334 -0.598499 -0.364616 255 0 0 255 
2.13555 2.00391 1.41797 -0.994448 0.000762343 -0.10523 255 0 0 255 
2.50391 2.02743 0.933594 0.160671 -0.359908 -0.919049 255 0 0 255 
2.50391 2.02734 0.933632 0.161468 -0.358441 -0.919483 255 0 0 255 
2.51172 2.03027 0.933594 0.125961 -0.361687 -0.923751 255 0 0 255 
2.51172 2.02734 0.934785 0.116916 -0.339429 -0.933337 255 0 0 255 
2.51953 2.03284 0.933594 0.119517 -0.354282 -0.92747 255 0 0 255 
2.51953 2.02734 0.935464 0.120782 -0.349097 -0.92927 255 0 0 255 
2.52734 2.02734 0.93682 0.149488 -0.353156 -0.923544 255 0 0 255 
2.53516 2.02734 0.938215 0.152002 -0.344228 -0.9265 255 0 0 255 
2.54297 2.02734 0.939222 0.154514 -0.354879 -0.922056 255 0 0 255 
2.55078 2.02734 0.940747 0.11774 -0.372038 -0.92072 255 0 0 255 
2.55859 2.02734 0.941186 0.13725 -0.366069 -0.920411 255 0 0 255 
2.50391 2.00452 1.40234 0.0379927 -0.870351 -0.490965 255 0 0 255 
2.50391 2.00391 1.40342 0.0394148 -0.867118 -0.496541 255 0 0 255 
2.51172 2.0052 1.40234 0.0324415 -0.872125 -0.488207 255 0 0 255 
2.51172 2.00391 1.40466 0.0240317 -0.871596 -0.489635 255 0 0 255 
2.51953 2.00497 1.40234 0.0135406 -0.869273 -0.494146 255 0 0 255 
2.51953 2.00391 1.4041 0.00544598 -0.863597 -0.504152 255 0 0 255 
2.52734 2.00517 1.40234 0.067668 -0.848284 -0.5252 255 0 0 255 
2.52734 2.00391 1.40466 0.0625079 -0.853624 -0.517126 255 0 0 255 
2.53516 2.00615 1.40234 0.0362073 -0.855259 -0.516934 255 0 0 255 
2.53516 2.00391 1.40615 0.0288512 -0.854212 -0.519123 255 0 0 255 
2.54297 2.00609 1.40234 0.0312588 -0.857835 -0.512973 255 0 0 255 
2.54297 2.00391 1.40581 0.0257145 -0.856065 -0.516228 255 0 0 255 
2.55078 2.00689 1.40234 0.0233795 -0.844159 -0.535583 255 0 0 255 
2.55078 2.00391 1.4068 0.0392863 -0.863412 -0.502968 255 0 0 255 
2.55859 2.00627 1.40234 0.0280061 -0.850133 -0.525823 255 0 0 255 
2.55859 2.00391 1.40681 0.0338418 -0.858403 -0.511858 255 0 0 255 
2.56641 2.00729 1.40234 -0.0167906 -0.849124 -0.527926 255 0 0 255 
2.56641 2.00391 1.40783 -0.0112884 -0.877971 -0.478582 255 0 0 255 
2.57422 2.00615 1.40234 0.0475667 -0.865665 -0.498359 255 0 0 255 
2.57422 2.00391 1.40597 0.0591172 -0.879375 -0.472446 255 0 0 255 
2.58203 2.00799 1.40234 0.227412 -0.839356 -0.493725 255 0 0 255 
2.58203 2.00391 1.40954 0.220065 -0.854201 -0.471075 255 0 0 255 
2.58984 2.01037 1.40234 0.215783 -0.853358 -0.474571 255 0 0 255 
2.60097 1.99609 1.43359 0.242633 -0.81741 -0.522465 255 0 0 255 
2.60547 1.99719 1.43359 0.316045 -0.814974 -0.48573 255 0 0 255 
2.60547 1.99609 1.43608 0.323337 -0.80044 -0.504728 255 0 0 255 
2.61328 2.00139 1.43359 0.423538 -0.793742 -0.436566 255 0 0 255 
2.42588 2.03516 0.917969 0.134335 -0.349703 -0.92718 255 0 0 255 
2.43359 2.03742 0.917969 0.136144 -0.34068 -0.93027 255 0 0 255 
2.43359 2.03516 0.918652 0.136894 -0.355712 -0.924515 255 0 0 255 
2.44141 2.04109 0.917969 0.170484 -0.338889 -0.925251 255 0 0 255 
2.44141 2.03516 0.920203 0.163863 -0.359379 -0.918692 255 0 0 255 
2.44922 2.03516 0.921357 0.130758 -0.343974 -0.92983 255 0 0 255 
2.45703 2.03516 0.922501 0.157051 -0.372952 -0.914463 255 0 0 255 
2.46484 2.03516 0.924139 0.147102 -0.377002 -0.914456 255 0 0 255 
2.47266 2.03516 0.924754 0.141014 -0.378031 -0.914991 255 0 0 255 
2.21578 2.03516 0.933594 -0.971404 -0.192591 -0.138866 255 0 0 255 
2.21484 2.03948 0.933594 -0.967193 -0.199671 -0.157065 255 0 0 255 
2.21484 2.03516 0.941017 -0.969704 -0.205215 -0.132518 255 0 0 255 
2.61292 1.98047 1.46484 0.655667 -0.599833 -0.458585 255 0 0 255 
2.61328 1.98071 1.46484 0.665932 -0.604904 -0.436608 255 0 0 255 
2.61328 1.98047 1.46512 0.659288 -0.607348 -0.443246 255 0 0 255 
2.61469 1.98828 1.45703 0.71573 -0.59821 -0.360382 255 0 0 255 
2.62109 1.99512 1.45703 0.738406 -0.57264 -0.356147 255 0 0 255 
2.21481 2.05078 0.933594 -0.939542 0.165108 -0.3 255 0 0 255 
2.21484 2.05095 0.933594 -0.939542 0.165108 -0.3 255 0 0 255 
2.2197 2.02734 0.917969 -0.964936 -0.219501 -0.143937 255 0 0 255 
2.41817 2.05078 0.910156 0.157344 -0.345595 -0.925098 255 0 0 255 
2.42578 2.05448 0.910156 0.156408 -0.329169 -0.931227 255 0 0 255 
2.42578 2.05078 0.911392 0.162364 -0.353688 -0.921164 255 0 0 255 
2.43359 2.05807 0.910156 0.183809 -0.34142 -0.921763 255 0 0 255 
2.43359 2.05078 0.912701 0.17625 -0.359261 -0.916443 255 0 0 255 
2.44141 2.05078 0.914305 0.157479 -0.356043 -0.921105 255 0 0 255 
2.44922 2.05078 0.915638 0.168259 -0.37025 -0.913566 255 0 0 255 
2.45703 2.05078 0.917154 0.0920299 -0.3361 -0.937319 255 0 0 255 
2.46484 2.05078 0.917321 0.138555 -0.33979 -0.93024 255 0 0 255 
2.51479 2.05078 0.925781 0.119178 -0.368341 -0.92202 255 0 0 255 
2.51953 2.05202 0.925781 0.128642 -0.373738 -0.91857 255 0 0 255 
2.51953 2.05078 0.926241 0.128642 -0.373738 -0.91857 255 0 0 255 
2.52734 2.05544 0.925781 0.151023 -0.350968 -0.924129 255 0 0 255 
2.52734 2.05078 0.927375 0.148285 -0.353577 -0.923577 255 0 0 255 
2.53516 2.05859 0.925781 0.121328 -0.351272 -0.928379 255 0 0 255 
2.53516 2.05078 0.928749 0.143591 -0.367344 -0.918934 255 0 0 255 
2.54297 2.05078 0.930068 0.131542 -0.388716 -0.911919 255 0 0 255 
2.55078 2.05078 0.931191 0.126453 -0.364277 -0.922666 255 0 0 255 
2.55859 2.05078 0.932312 0.151359 -0.352893 -0.92334 255 0 0 255 
2.13306 1.98828 1.44922 -0.993704 0.110315 -0.0195779 255 0 0 255 
2.30499 2.01953 0.902344 0.172686 -0.323903 -0.930197 255 0 0 255 
2.30859 2.02185 0.902344 0.175905 -0.318978 -0.931295 255 0 0 255 
2.30859 2.01953 0.903205 0.183598 -0.334581 -0.924309 255 0 0 255 
2.31641 2.02598 0.902344 0.114064 -0.336429 -0.934775 255 0 0 255 
2.31641 2.01953 0.90459 0.126059 -0.334449 -0.933945 255 0 0 255 
2.32422 2.02695 0.902344 0.141621 -0.344425 -0.928071 255 0 0 255 
2.32422 2.01953 0.905652 0.135769 -0.407724 -0.902955 255 0 0 255 
2.33203 2.01953 0.907237 0.174883 -0.373559 -0.910972 255 0 0 255 
2.33984 2.01953 0.908848 0.139329 -0.340103 -0.930009 255 0 0 255 
2.34766 2.01953 0.909819 0.151632 -0.328641 -0.932203 255 0 0 255 
2.54536 2.04297 0.933594 0.119474 -0.37416 -0.919636 255 0 0 255 
2.55078 2.04429 0.933594 0.118257 -0.366474 -0.922883 255 0 0 255 
2.55078 2.04297 0.934051 0.118257 -0.366474 -0.922883 255 0 0 255 
2.55859 2.04739 0.933594 0.144053 -0.334418 -0.931351 255 0 0 255 
2.55859 2.04297 0.935268 0.139673 -0.356251 -0.923892 255 0 0 255 
2.56641 2.04297 0.936344 0.145715 -0.349181 -0.925656 255 0 0 255 
2.57422 2.04297 0.937363 0.107276 -0.361752 -0.926081 255 0 0 255 
2.58203 2.04297 0.938041 0.158527 -0.389283 -0.907374 255 0 0 255 
2.58984 2.04297 0.939704 0.172311 -0.393448 -0.903055 255 0 0 255 
2.59766 2.04297 0.941272 0.128531 -0.370851 -0.919755 255 0 0 255 
2.13161 1.98047 1.45703 -0.995086 0.09608 -0.0239453 255 0 0 255 
2.13172 1.97266 1.45703 -0.987048 0.130961 -0.0926578 255 0 0 255 
2.13672 2.01172 1.41016 -0.986257 0.111602 -0.121825 255 0 0 255 
2.13672 2.01172 1.41017 -0.986257 0.111602 -0.121825 255 0 0 255 
2.21649 2.05859 0.933594 -0.932587 0.202303 -0.298922 255 0 0 255 
2.21484 2.05859 0.939094 -0.932471 0.202313 -0.299278 255 0 0 255 
2.32485 2.02734 0.902344 0.147377 -0.334545 -0.930784 255 0 0 255 
2.33203 2.0324 0.902344 0.187577 -0.320072 -0.928638 255 0 0 255 
2.33203 2.02734 0.904365 0.214491 -0.361035 -0.90755 255 0 0 255 
2.33984 2.02734 0.905886 0.17858 -0.352546 -0.918597 255 0 0 255 
2.34766 2.02734 0.907128 0.146587 -0.331301 -0.932068 255 0 0 255 
2.35547 2.02734 0.908598 0.164106 -0.344993 -0.924148 255 0 0 255 
2.36328 2.02734 0.909702 0.184649 -0.354461 -0.916658 255 0 0 255 
2.21286 2.04297 0.941406 -0.974552 -0.176295 -0.138447 255 0 0 255 
2.22081 2.01953 0.925781 -0.88986 -0.452621 -0.0572976 255 0 0 255 
2.50391 2.01343 1.38672 0.0195278 -0.860026 -0.509876 255 0 0 255 
2.50391 2.01172 1.38954 0.0216362 -0.857013 -0.51484 255 0 0 255 
2.51172 2.01398 1.38672 0.0452003 -0.867029 -0.496203 255 0 0 255 
2.51172 2.01172 1.39028 0.0437358 -0.86801 -0.494618 255 0 0 255 
2.51953 2.01403 1.38672 0.0429345 -0.871694 -0.488166 255 0 0 255 
2.51953 2.01172 1.39104 0.0508316 -0.866296 -0.496938 255 0 0 255 
2.52734 2.01418 1.38672 0.0473092 -0.890171 -0.453164 255 0 0 255 
2.52734 2.01172 1.39202 0.0502527 -0.865361 -0.498622 255 0 0 255 
2.53516 2.01507 1.38672 0.0808113 -0.872898 -0.481164 255 0 0 255 
2.53516 2.01172 1.39264 0.0482466 -0.861449 -0.505548 255 0 0 255 
2.54297 2.01641 1.38672 0.045462 -0.877868 -0.47674 255 0 0 255 
2.54297 2.01172 1.39266 0.0533058 -0.845812 -0.530811 255 0 0 255 
2.55078 2.0161 1.38672 0.0294917 -0.879806 -0.474418 255 0 0 255 
2.55078 2.01172 1.39423 0.0581854 -0.864638 -0.499014 255 0 0 255 
2.55859 2.01619 1.38672 0.025965 -0.887281 -0.460498 255 0 0 255 
2.56641 2.01615 1.38672 0.0767794 -0.863645 -0.498219 255 0 0 255 
2.57422 2.0169 1.38672 0.039385 -0.840905 -0.539748 255 0 0 255 
2.57422 2.01172 1.39404 0.0466367 -0.824191 -0.564388 255 0 0 255 
2.58203 2.01678 1.38672 0.124556 -0.849292 -0.513019 255 0 0 255 
2.58984 2.019 1.38672 0.215672 -0.854917 -0.471807 255 0 0 255 
2.13367 1.99609 1.44141 -0.997984 0.0598901 -0.0210193 255 0 0 255 
2.43432 2.05859 0.910156 0.182745 -0.343226 -0.921304 255 0 0 255 
2.44141 2.06292 0.910156 0.193885 -0.365971 -0.910205 255 0 0 255 
2.44141 2.05859 0.911825 0.162789 -0.322986 -0.932298 255 0 0 255 
2.44922 2.05859 0.912406 0.136994 -0.323699 -0.93619 255 0 0 255 
2.45703 2.05859 0.914099 0.110394 -0.342388 -0.933051 255 0 0 255 
2.46484 2.05859 0.914389 0.128044 -0.336858 -0.932808 255 0 0 255 
2.47266 2.05859 0.916484 0.167035 -0.355746 -0.919535 255 0 0 255 
2.48047 2.05859 0.917104 0.10893 -0.355553 -0.928287 255 0 0 255 
2.44444 2.04297 0.917969 0.152755 -0.342347 -0.927073 255 0 0 255 
2.44922 2.04541 0.917969 0.15163 -0.34658 -0.925684 255 0 0 255 
2.44922 2.04297 0.91893 0.140943 -0.332616 -0.932471 255 0 0 255 
2.45703 2.04825 0.917969 0.0959478 -0.351007 -0.931444 255 0 0 255 
2.45703 2.04297 0.919549 0.085841 -0.327706 -0.940872 255 0 0 255 
2.46484 2.04908 0.917969 0.13207 -0.351866 -0.926687 255 0 0 255 
2.46484 2.04297 0.920519 0.148595 -0.370753 -0.916767 255 0 0 255 
2.47266 2.04297 0.922144 0.179274 -0.346034 -0.920935 255 0 0 255 
2.48047 2.04297 0.923249 0.141007 -0.354462 -0.924378 255 0 0 255 
2.48828 2.04297 0.924284 0.149492 -0.378981 -0.91325 255 0 0 255 
2.61479 1.97266 1.48047 0.751805 -0.566068 -0.338167 255 0 0 255 
2.13505 2.00391 1.42578 -0.995997 0.0650202 -0.0613407 255 0 0 255 
2.57918 2.03516 0.941406 0.149134 -0.423363 -0.893601 255 0 0 255 
2.58203 2.03633 0.941406 0.175112 -0.428302 -0.886506 255 0 0 255 
2.58203 2.03516 0.942038 0.175112 -0.428302 -0.886506 255 0 0 255 
2.58984 2.03952 0.941406 0.158415 -0.398487 -0.90339 255 0 0 255 
2.58984 2.03516 0.943285 0.146146 -0.38644 -0.910662 255 0 0 255 
2.59766 2.0426 0.941406 0.128531 -0.370851 -0.919755 255 0 0 255 
2.59766 2.03516 0.944144 0.124473 -0.381799 -0.915825 255 0 0 255 
2.60547 2.03516 0.945352 0.129461 -0.387943 -0.912546 255 0 0 255 
2.53764 2.01953 0.941406 0.171302 -0.381866 -0.908204 255 0 0 255 
2.54297 2.02186 0.941406 0.16674 -0.360729 -0.917645 255 0 0 255 
2.54297 2.01953 0.942446 0.183439 -0.397081 -0.899265 255 0 0 255 
2.55078 2.02575 0.941406 0.11774 -0.372038 -0.92072 255 0 0 255 
2.55078 2.01953 0.944083 0.117232 -0.380208 -0.917441 255 0 0 255 
2.55859 2.02691 0.941406 0.126097 -0.384945 -0.914285 255 0 0 255 
2.55859 2.01953 0.944811 0.130765 -0.376301 -0.917223 255 0 0 255 
2.56641 2.01953 0.946209 0.163884 -0.351678 -0.921664 255 0 0 255 
2.57422 2.01953 0.947458 0.155298 -0.352326 -0.922903 255 0 0 255 
2.58203 2.01953 0.948805 0.130428 -0.353525 -0.926288 255 0 0 255 
2.61237 1.99609 1.44141 0.532325 -0.714861 -0.453435 255 0 0 255 
2.61328 1.99637 1.44141 0.564803 -0.697244 -0.441417 255 0 0 255 
2.61328 1.99609 1.44186 0.564802 -0.697244 -0.441417 255 0 0 255 
2.53517 2.05859 0.925781 0.121328 -0.351272 -0.928379 255 0 0 255 
2.54297 2.06038 0.925781 0.0793909 -0.187969 -0.978961 255 0 0 255 
2.54297 2.05859 0.926612 0.126191 -0.369065 -0.920797 255 0 0 255 
2.55078 2.06356 0.925781 0.102854 -0.292715 -0.950652 255 0 0 255 
2.55078 2.05859 0.92793 0.132343 -0.350989 -0.92698 255 0 0 255 
2.55859 2.06556 0.925781 0.166965 0.0653569 -0.983794 255 0 0 255 
2.55859 2.05859 0.929287 0.145955 -0.378662 -0.913954 255 0 0 255 
2.56641 2.05859 0.929777 0.174625 -0.360456 -0.916285 255 0 0 255 
2.57422 2.05859 0.931473 0.174155 -0.335935 -0.925644 255 0 0 255 
2.58203 2.05859 0.933052 0.0730676 -0.122981 -0.989716 255 0 0 255 
2.58984 2.05859 0.933516 0.119321 -0.151716 -0.981196 255 0 0 255 
2.58322 2.00391 1.41016 0.22872 -0.858539 -0.45891 255 0 0 255 
2.58984 2.00587 1.41016 0.240899 -0.852847 -0.463271 255 0 0 255 
2.58984 2.00391 1.41416 0.233509 -0.865182 -0.443773 255 0 0 255 
2.59766 2.00797 1.41016 0.26458 -0.850642 -0.45432 255 0 0 255 
2.59766 2.00391 1.41767 0.243103 -0.861774 -0.445249 255 0 0 255 
2.60547 2.01046 1.41016 0.270005 -0.857978 -0.437002 255 0 0 255 
2.2122 2.05078 0.941406 -0.973159 0.06005 -0.222163 255 0 0 255 
2.2186 2.02734 0.925781 -0.954648 -0.275599 -0.112664 255 0 0 255 
2.55951 2.02734 0.941406 0.13725 -0.366069 -0.920411 255 0 0 255 
2.56641 2.03152 0.941406 0.158463 -0.389053 -0.907484 255 0 0 255 
2.56641 2.02734 0.942905 0.175837 -0.386308 -0.905454 255 0 0 255 
2.57422 2.03311 0.941406 0.136291 -0.423991 -0.895353 255 0 0 255 
2.57422 2.02734 0.944591 0.148623 -0.404743 -0.902272 255 0 0 255 
2.58203 2.02734 0.945649 0.133322 -0.399104 -0.907161 255 0 0 255 
2.58984 2.02734 0.946603 0.119268 -0.381288 -0.91673 255 0 0 255 
2.59766 2.02734 0.947871 0.129865 -0.378659 -0.91638 255 0 0 255 
2.60547 2.02734 0.948657 0.149443 -0.39553 -0.906213 255 0 0 255 
2.47724 2.03516 0.925781 0.166866 -0.378258 -0.910536 255 0 0 255 
2.48047 2.03704 0.925781 0.157921 -0.371107 -0.915063 255 0 0 255 
2.48047 2.03516 0.926578 0.169956 -0.394319 -0.903121 255 0 0 255 
2.48828 2.03964 0.925781 0.139372 -0.378127 -0.915202 255 0 0 255 
2.48828 2.03516 0.927978 0.143363 -0.387793 -0.910529 255 0 0 255 
2.49609 2.03516 0.928611 0.141256 -0.373395 -0.916855 255 0 0 255 
2.46774 2.05078 0.917969 0.160738 -0.344921 -0.924766 255 0 0 255 
2.47266 2.05439 0.917969 0.173646 -0.352973 -0.919379 255 0 0 255 
2.47266 2.05078 0.919266 0.178687 -0.346362 -0.920926 255 0 0 255 
2.48047 2.05653 0.917969 0.113185 -0.369957 -0.922128 255 0 0 255 
2.48047 2.05078 0.920527 0.120639 -0.36009 -0.925084 255 0 0 255 
2.48828 2.05078 0.921363 0.141059 -0.361035 -0.921822 255 0 0 255 
2.49609 2.05078 0.922702 0.160835 -0.363466 -0.917619 255 0 0 255 
2.2148 2.03516 0.941406 -0.969704 -0.205215 -0.132518 255 0 0 255 
2.61785 1.98828 1.46484 0.757195 -0.540754 -0.366389 255 0 0 255 
2.62109 1.99111 1.46484 0.727268 -0.601032 -0.331424 255 0 0 255 
2.62109 1.98828 1.46963 -0.779078 0.545522 0.30894 255 0 0 255 
2.56584 2.05078 0.933594 0.169611 -0.378911 -0.909758 255 0 0 255 
2.56641 2.05099 0.933594 0.164834 -0.386854 -0.907289 255 0 0 255 
2.56641 2.05078 0.933695 0.169611 -0.378911 -0.909758 255 0 0 255 
2.57422 2.05444 0.933594 0.139902 -0.386047 -0.911809 255 0 0 255 
2.57422 2.05078 0.935133 0.111779 -0.332 -0.936633 255 0 0 255 
2.58203 2.05682 0.933594 0.0778073 -0.27109 -0.959404 255 0 0 255 
2.58203 2.05078 0.935198 0.0817375 -0.311928 -0.946583 255 0 0 255 
2.58984 2.05839 0.933594 0.119321 -0.151716 -0.981196 255 0 0 255 
2.58984 2.05078 0.936572 0.149087 -0.347592 -0.925717 255 0 0 255 
2.59766 2.05078 0.938012 0.13692 -0.363098 -0.921636 255 0 0 255 
2.60547 2.05078 0.938425 0.183813 -0.261306 -0.947593 255 0 0 255 
2.61597 1.98047 1.47266 0.762081 -0.536086 -0.363105 255 0 0 255 
2.62109 1.98662 1.47266 0.770851 -0.534501 -0.346551 255 0 0 255 
2.13271 1.98828 1.45703 -0.992979 0.118253 -0.00303626 255 0 0 255 
