ply
format ascii 1.0
comment VCGLIB generated
element vertex 685
property float x
property float y
property float z
property float nx
property float ny
property float nz
property uchar red
property uchar green
property uchar blue
property uchar alpha
element face 0
property list uchar int vertex_indices
end_header
-0.156338 -0.16062 0.685334 0.764828 0.578072 0.284379 0 255 0 255 
-0.0782541 -0.00858012 0.655068 -0.410586 -0.639137 -0.650325 0 255 0 255 
-0.165763 -0.141961 0.684254 -0.83349 -0.424467 -0.353727 0 255 0 255 
-0.0106793 0.104668 0.584499 0.80261 -0.506602 -0.314914 0 255 0 255 
-0.0861304 0.115114 0.524501 0.888412 0.324671 -0.324521 0 255 0 255 
-0.37172 0.0925767 0.307339 0.121095 0.879953 -0.459368 0 255 0 255 
-0.102164 0.116299 0.524393 -0.766482 -0.365208 -0.528327 0 255 0 255 
-0.376032 0.102832 0.307743 0.121095 0.879953 -0.459368 0 255 0 255 
0.0115964 0.117665 0.337087 -0.122343 -0.599093 -0.791277 0 255 0 255 
0.316927 0.57259 0.765486 -0.626358 -0.779422 -0.0133215 0 255 0 255 
0.314964 0.55211 0.769128 -0.95095 -0.293251 0.0984754 0 255 0 255 
-0.015184 0.0946353 0.351308 -0.670535 -0.675631 -0.306441 0 255 0 255 
-5.22986 0.942572 -3.58346 0.972422 -0.221861 -0.071931 0 255 0 255 
-3.42172 0.375542 -2.78174 0.83795 0.305615 0.45215 0 255 0 255 
-4.15514 0.586036 -2.93302 -0.480871 -0.54193 0.689256 0 255 0 255 
-1.7437 0.0507879 -0.909051 0.686241 -0.11435 -0.718329 0 255 0 255 
0.35349 0.113733 0.563374 0.218479 -0.329585 -0.918499 0 255 0 255 
-4.18623 0.321788 -3.20291 -0.522658 -0.457756 0.719227 0 255 0 255 
-4.68676 0.726822 -4.06681 0.549131 -0.638478 -0.539259 0 255 0 255 
-3.6697 0.602404 -2.94352 -0.0980335 0.572108 0.814299 0 255 0 255 
0.431375 0.806902 0.31666 -0.835966 -0.0203776 -0.548403 0 255 0 255 
0.335615 0.523888 0.705151 -0.948548 -0.196947 -0.247929 0 255 0 255 
-0.164011 0.104937 0.744739 -0.228821 0.747043 -0.624154 0 255 0 255 
-0.133488 -0.175286 0.722834 0.41858 0.907963 0.0198553 0 255 0 255 
0.258969 0.0961276 0.557837 -0.736762 -0.249799 -0.628317 0 255 0 255 
-0.0443544 0.0892295 0.35034 0.0237663 -0.896507 -0.442392 0 255 0 255 
0.254854 0.108411 0.566201 -0.736762 -0.249799 -0.628317 0 255 0 255 
-0.12426 0.0987879 0.333893 0.326709 0.306849 -0.893927 0 255 0 255 
-0.046793 0.109857 0.682894 0.0615407 0.71094 -0.700555 0 255 0 255 
0.1425 0.110927 0.393922 -0.567403 -0.79697 0.207105 0 255 0 255 
-1.72954 0.430248 -0.893449 -0.374766 -0.096411 0.922093 0 255 0 255 
-0.122024 0.115167 0.477159 0.377427 0.732025 -0.567175 0 255 0 255 
-3.87499 1.00534 -2.71074 0.204303 -0.127707 0.970542 0 255 0 255 
-0.142515 0.0993074 0.692073 0.786955 -0.613561 0.0651626 0 255 0 255 
-3.30071 0.736125 -2.67877 0.508197 -0.435404 -0.743074 0 255 0 255 
-0.982765 0.0570862 -0.0793122 0.839669 -0.520977 -0.153425 0 255 0 255 
-3.91938 0.787516 -3.53648 0.443179 -0.847802 -0.291247 0 255 0 255 
-4.76392 0.730686 -4.28692 -0.229315 0.431586 0.872438 0 255 0 255 
-4.5781 0.694036 -4.12319 0.549131 -0.638478 -0.539259 0 255 0 255 
-3.57103 0.630373 -3.03179 -0.20749 0.622063 0.754974 0 255 0 255 
-3.39266 0.662176 -2.79777 -0.508197 0.435405 0.743074 0 255 0 255 
-3.91612 0.562992 -3.62481 0.943594 -0.236191 -0.232045 0 255 0 255 
-3.34391 0.170077 -2.96349 0.327362 -0.819974 0.469549 0 255 0 255 
-2.60619 0.83349 -1.89756 -0.589711 -0.570928 0.571211 0 255 0 255 
-3.27205 0.236971 -3.04649 0.82709 0.122406 -0.548579 0 255 0 255 
-0.0944946 0.115696 0.490205 0.818865 0.501029 -0.280052 0 255 0 255 
-0.201925 0.0381838 0.67042 -0.293335 0.737468 -0.608355 0 255 0 255 
0.452016 0.753345 0.405783 0.878699 -0.357184 -0.316713 0 255 0 255 
-0.163318 -0.289436 0.647041 -0.222324 0.392479 -0.892487 0 255 0 255 
0.405045 0.80961 0.182403 -0.787132 -0.61523 -0.0437598 0 255 0 255 
0.450619 0.799374 0.238049 0.191758 -0.872504 0.449405 0 255 0 255 
0.242126 0.818043 -0.0248047 -0.718489 -0.667767 0.194576 0 255 0 255 
0.355563 0.834523 0.0968857 0.503415 -0.861975 0.0597769 0 255 0 255 
-0.162866 0.0411706 0.698599 0.707838 -0.254295 -0.659014 0 255 0 255 
-0.000851035 0.0984711 0.441415 0.00926471 -0.995365 0.0957227 0 255 0 255 
0.024377 0.105773 0.358533 0.100503 -0.836343 -0.538915 0 255 0 255 
0.147828 0.116521 0.380283 -0.567404 -0.79697 0.207105 0 255 0 255 
0.161622 0.108999 0.372749 -0.311457 -0.89458 0.320502 0 255 0 255 
0.262161 0.0963553 0.55403 -0.736762 -0.249799 -0.628317 0 255 0 255 
-0.953129 0.111984 -0.0247664 0.99443 0.0745806 0.0744716 0 255 0 255 
-0.936986 0.0965866 -0.071139 0.975334 0.00271939 -0.220717 0 255 0 255 
-0.126267 0.0881966 0.45483 0.168899 -0.975749 0.139239 0 255 0 255 
-2.09262 0.838823 -1.66767 0.794815 -0.299834 -0.527607 0 255 0 255 
0.143052 0.0822696 0.336205 -0.798554 -0.601641 0.0184001 0 255 0 255 
-3.30875 0.212158 -2.97601 0.758654 -0.355748 0.54579 0 255 0 255 
0.182013 0.0916315 0.359456 -0.616619 -0.76716 0.176769 0 255 0 255 
-2.4982 0.175541 -2.28343 -0.582885 -0.211373 0.78458 0 255 0 255 
-2.0748 -0.031206 -1.87157 0.189489 0.964958 0.181521 0 255 0 255 
0.132517 0.127285 0.395357 -0.567404 -0.79697 0.207105 0 255 0 255 
0.483353 0.110373 0.558005 0.259234 0.273646 -0.926237 0 255 0 255 
-0.213093 0.102196 0.316934 0.138018 -0.963359 0.229981 0 255 0 255 
0.0561244 -0.29743 0.653926 0.549922 0.699186 -0.456864 0 255 0 255 
-3.95057 1.05832 -2.73432 -0.511573 -0.0900964 0.854503 0 255 0 255 
-0.124308 -0.18668 0.67378 0.0924324 0.506616 -0.857203 0 255 0 255 
-1.04367 -0.0506722 -0.0784801 0.637096 -0.685734 -0.351963 0 255 0 255 
-0.96521 0.056399 -0.0225765 0.820519 -0.567265 -0.07043 0 255 0 255 
-0.979733 0.0420766 -0.0316186 0.820519 -0.567264 -0.0704299 0 255 0 255 
-1.016 0.0370033 -0.136709 0.591842 -0.344293 -0.728825 0 255 0 255 
-3.88263 0.878447 -2.62452 0.706818 0.0697543 -0.703948 0 255 0 255 
0.357203 0.113299 0.564348 0.218479 -0.329585 -0.918499 0 255 0 255 
0.159559 0.10863 0.290365 -0.251111 -0.759438 -0.600165 0 255 0 255 
-0.294343 0.302827 -0.374567 0.595024 0.736732 0.321205 0 255 0 255 
0.217028 0.127436 0.236312 0.0143558 -0.99271 -0.119672 0 255 0 255 
-0.298853 0.338419 -0.424534 0.541449 0.762479 0.3542 0 255 0 255 
-0.184108 0.0104413 0.662687 0.975626 0.149015 0.161088 0 255 0 255 
0.344882 0.561778 0.701747 -0.905291 -0.315393 -0.284562 0 255 0 255 
-3.76967 0.45915 -2.50817 0.559082 0.675095 0.481325 0 255 0 255 
0.326839 0.122963 0.575719 0.0526427 0.415579 -0.908032 0 255 0 255 
0.220669 0.14269 0.25982 -0.243197 -0.95708 -0.157646 0 255 0 255 
-0.332889 0.345949 -0.407619 0.541449 0.762479 0.3542 0 255 0 255 
0.144639 0.135485 0.168631 -0.634137 -0.772597 0.0310475 0 255 0 255 
0.501397 0.799841 0.2426 0.0216181 -0.389502 -0.920772 0 255 0 255 
0.422312 0.858276 0.120391 0.346799 -0.891161 -0.292511 0 255 0 255 
0.505992 0.835319 0.227638 0.0622713 -0.541079 -0.838663 0 255 0 255 
0.256532 0.84766 -0.0931933 -0.787053 -0.541056 0.296319 0 255 0 255 
-1.01766 -0.0319648 -0.0662407 0.815763 -0.57375 -0.0730829 0 255 0 255 
-0.144351 0.143201 -0.0177701 0.394662 -0.267394 -0.879058 0 255 0 255 
0.159289 0.105871 0.282879 -0.541877 -0.527368 -0.65441 0 255 0 255 
-0.023478 0.126489 0.351339 -0.798229 -0.573985 -0.18268 0 255 0 255 
0.266756 0.106313 0.541213 -0.736762 -0.249799 -0.628317 0 255 0 255 
0.170561 0.126206 0.171066 -0.67022 -0.716429 0.193739 0 255 0 255 
0.212378 0.13649 0.159661 -0.670219 -0.716429 0.193739 0 255 0 255 
-0.235144 0.307802 -0.488199 -0.511171 -0.853314 -0.102755 0 255 0 255 
-1.02166 -0.255773 0.125627 0.842675 0.495206 0.211352 0 255 0 255 
-0.0584881 0.107363 0.6518 0.818896 -0.321906 -0.475169 0 255 0 255 
-1.12265 -0.141751 -0.0903967 0.677652 -0.640068 -0.362078 0 255 0 255 
-1.04825 -0.0661039 -0.0633044 0.616805 -0.683257 -0.390783 0 255 0 255 
-0.940944 0.0698082 -0.00311893 0.824574 -0.564369 0.0395638 0 255 0 255 
-0.975099 0.037977 -0.0570199 0.909881 -0.404007 -0.0943117 0 255 0 255 
-0.0315065 0.12132 0.593417 0.420397 0.850477 -0.316157 0 255 0 255 
0.155102 0.0895875 0.341119 -0.783624 -0.602446 0.151632 0 255 0 255 
0.263832 0.0922697 0.364469 -0.00948419 0.942142 -0.335079 0 255 0 255 
-4.48082 0.00492716 -0.637373 0.0288435 -0.981199 0.190833 0 255 0 255 
-4.61091 -0.0133236 -0.870706 -0.0213476 -0.955847 0.29309 0 255 0 255 
-0.148452 0.0996519 0.705132 0.959851 -0.0571449 -0.274629 0 255 0 255 
-0.158952 0.0708268 0.69926 0.86696 -0.349929 -0.354867 0 255 0 255 
-0.00373864 0.1052 0.639698 -0.494353 -0.778389 -0.386944 0 255 0 255 
0.470959 0.240049 0.653319 0.256336 0.263404 -0.930006 0 255 0 255 
0.450759 0.772844 0.237822 -0.766603 0.50994 -0.390233 0 255 0 255 
0.376178 0.824286 0.200395 -0.150753 -0.768174 -0.62224 0 255 0 255 
0.415827 0.852216 0.0939432 0.346799 -0.891161 -0.292511 0 255 0 255 
-1.0912 -0.0730392 -0.158668 0.470991 -0.2663 -0.840983 0 255 0 255 
-0.902851 0.136559 0.045832 0.937212 0.067675 -0.342132 0 255 0 255 
-1.0731 -0.292331 0.18331 0.667569 0.388482 0.635165 0 255 0 255 
-1.05374 -0.252004 0.177828 0.667569 0.388482 0.635164 0 255 0 255 
-1.0428 -0.271405 0.170815 0.667569 0.388482 0.635164 0 255 0 255 
-1.03622 -0.244755 0.0876628 0.871328 0.426148 0.24328 0 255 0 255 
-0.989152 0.133584 0.0252969 0.895415 -0.354885 -0.268867 0 255 0 255 
-0.989406 0.0162393 0.00160825 0.907517 -0.398011 -0.134164 0 255 0 255 
-3.55012 -0.00314304 -1.57878 -0.343751 -0.410128 0.844766 0 255 0 255 
-0.97016 0.0690446 -0.114861 0.839669 -0.520977 -0.153425 0 255 0 255 
-1.11202 -0.0999413 -0.0976704 0.688786 -0.614375 -0.38486 0 255 0 255 
-1.08285 -0.0697989 -0.114596 0.50894 -0.270711 -0.817126 0 255 0 255 
-0.0768633 0.108208 0.428884 -0.28676 -0.244637 -0.926241 0 255 0 255 
-4.53684 0.0753005 -3.40533 0.329829 -0.910244 -0.250338 0 255 0 255 
-4.06292 0.0866327 -3.2616 -0.451697 -0.569708 0.686588 0 255 0 255 
-4.40091 0.560739 -3.83967 0.484235 -0.725505 -0.489039 0 255 0 255 
-3.72517 0.0698516 -3.20128 0.14868 -0.986851 -0.0634061 0 255 0 255 
-2.26249 0.151863 -2.04543 0.30948 0.950788 -0.0149991 0 255 0 255 
-0.0943425 0.185231 -0.0333011 0.0127857 -0.645763 -0.763431 0 255 0 255 
-0.279132 0.357643 -0.583379 -0.587649 -0.789808 -0.175704 0 255 0 255 
-5.19556 -0.114946 -0.950693 -0.0326231 -0.0914346 0.995277 0 255 0 255 
-4.72897 -0.0653062 -0.897878 0.0276194 0.986077 -0.163981 0 255 0 255 
-4.22671 -0.147851 -0.852787 0.162756 -0.954564 0.249636 0 255 0 255 
-3.25245 -0.146113 -0.483791 0.211401 -0.934648 0.285909 0 255 0 255 
-0.13926 0.116834 0.743634 0.55358 0.679869 -0.480965 0 255 0 255 
-0.106801 0.136669 0.712701 0.0139716 -0.926288 -0.376558 0 255 0 255 
-0.0246773 -0.231289 0.674555 0.388565 0.540195 -0.746463 0 255 0 255 
0.0533526 -0.115475 0.662167 -0.476027 0.095148 -0.874268 0 255 0 255 
0.0139554 0.107963 0.607634 0.613525 -0.741815 -0.270736 0 255 0 255 
-0.0998806 0.0945195 0.518243 0.888411 0.324671 -0.324521 0 255 0 255 
-0.0396697 0.0798445 0.60912 0.340465 -0.93425 0.106119 0 255 0 255 
0.424861 0.800026 0.343565 -0.951175 0.296201 0.0867843 0 255 0 255 
0.435313 0.843823 0.297645 -0.95686 -0.100992 0.272433 0 255 0 255 
-1.06001 -0.227587 0.164271 0.672708 0.409113 0.616515 0 255 0 255 
-1.03397 -0.304192 0.180598 0.759606 0.211024 0.615197 0 255 0 255 
-1.02137 -0.294673 0.146501 0.74369 0.359046 0.563924 0 255 0 255 
-1.01064 -0.304634 0.124245 0.811382 0.409083 0.417504 0 255 0 255 
-1.05924 -0.22784 0.13627 0.86222 0.430719 0.266565 0 255 0 255 
-1.05046 -0.172379 0.00934398 0.79071 -0.376494 -0.482732 0 255 0 255 
-1.11158 -0.14463 -0.0545414 0.770031 -0.388207 -0.506308 0 255 0 255 
-3.35718 -0.0211016 -1.40111 0.381826 0.917759 0.109215 0 255 0 255 
-1.04486 -0.0763408 -0.0946638 0.762961 -0.515608 -0.389921 0 255 0 255 
-1.07281 -0.159419 -0.072801 0.648895 -0.593631 -0.475959 0 255 0 255 
-0.0156732 0.0877185 0.425732 0.00926471 -0.995365 0.0957227 0 255 0 255 
-0.972478 0.0273505 -0.10682 0.851158 -0.488601 -0.191829 0 255 0 255 
-3.57424 -0.0544324 -3.03828 0.394931 -0.918564 0.0164118 0 255 0 255 
-3.55408 0.252118 -2.73291 0.700269 -0.248465 0.669245 0 255 0 255 
-1.91397 -0.0176085 -2.18604 0.744288 0.457236 -0.486797 0 255 0 255 
0.377358 0.101484 0.373352 -0.136141 -0.966974 -0.215471 0 255 0 255 
0.424114 0.50049 0.33028 -0.596679 -0.0661394 0.79975 0 255 0 255 
-4.51615 -0.187281 -1.10638 0.0456554 -0.958322 0.28202 0 255 0 255 
0.0455291 -0.30204 0.654974 0.549922 0.699186 -0.456864 0 255 0 255 
-1.04991 -0.195449 0.110539 0.86222 0.430719 0.266566 0 255 0 255 
-3.1018 -0.113976 -1.25786 0.557422 -0.811715 -0.174353 0 255 0 255 
-0.160092 0.110111 0.474253 0.0993211 0.905567 -0.412412 0 255 0 255 
0.333601 0.480211 0.701486 -0.948548 -0.196947 -0.247929 0 255 0 255 
0.249089 0.113105 0.568275 -0.736762 -0.249799 -0.628317 0 255 0 255 
-0.327142 -0.162327 0.658958 0.515469 -0.0788674 -0.853271 0 255 0 255 
-0.138045 0.104312 0.459428 -0.197866 0.912238 -0.358708 0 255 0 255 
-1.01977 0.0401177 0.00665444 0.828093 -0.436382 0.351899 0 255 0 255 
-1.90957 0.127896 -0.957649 -0.0277215 0.272312 0.96181 0 255 0 255 
-0.159353 -0.059561 0.700116 0.332844 0.256545 -0.907414 0 255 0 255 
-1.04114 -0.106393 -0.000215828 0.740798 -0.478368 -0.471574 0 255 0 255 
-1.10703 -0.142226 -0.0445111 0.740296 -0.390148 -0.547491 0 255 0 255 
-2.37944 -0.208608 -1.02333 0.469314 -0.867993 -0.162273 0 255 0 255 
-1.82179 -0.271836 -0.724146 0.700106 -0.0891686 -0.70845 0 255 0 255 
-1.67901 -0.117537 -0.631101 0.334603 -0.536925 -0.774437 0 255 0 255 
-0.922099 0.16398 -0.149824 0.894147 0.127979 -0.429095 0 255 0 255 
-1.83279 0.747482 -0.934092 0.679333 0.0859611 -0.728778 0 255 0 255 
-3.01086 0.590741 -1.85783 0.249352 -0.869079 -0.42723 0 255 0 255 
-3.69801 -0.119284 -2.70198 0.970221 -0.221571 0.0978618 0 255 0 255 
-5.79715 0.0345405 -4.58055 -0.335685 0.765798 0.548516 0 255 0 255 
-4.08078 -0.0767653 -3.53197 -0.349323 -0.122878 0.92891 0 255 0 255 
-0.315786 0.104161 -0.117058 0.523912 -0.291236 -0.800436 0 255 0 255 
0.169669 0.0894161 0.337729 -0.783624 -0.602446 0.151632 0 255 0 255 
0.154706 0.101857 0.313018 -0.899938 -0.43178 0.0606483 0 255 0 255 
-0.117851 0.153577 -0.0440347 0.394662 -0.267394 -0.879057 0 255 0 255 
0.222206 0.795922 -0.18014 -0.226301 -0.973857 -0.0197656 0 255 0 255 
0.349202 0.799738 -0.0290323 0.141209 -0.986052 0.0881036 0 255 0 255 
0.246872 0.787034 -0.169817 -0.745392 -0.649541 0.149957 0 255 0 255 
0.319105 0.816899 -0.0989245 -0.78821 -0.574654 0.220225 0 255 0 255 
0.258313 0.821524 -0.196705 -0.731473 -0.636804 0.24378 0 255 0 255 
-0.0385126 0.117188 0.683487 0.0615407 0.71094 -0.700555 0 255 0 255 
-0.0127097 0.119322 0.64879 -0.807613 -0.0722139 -0.585275 0 255 0 255 
-0.117235 0.106801 -0.00326467 0.394662 -0.267394 -0.879058 0 255 0 255 
-1.99968 -0.0627764 -1.86555 0.189488 0.964958 0.181521 0 255 0 255 
-0.236632 0.328258 -0.489967 -0.511171 -0.853314 -0.102755 0 255 0 255 
-1.04679 -0.287034 -0.0260216 0.944372 0.265958 -0.193465 0 255 0 255 
0.19972 0.135979 0.150483 -0.670219 -0.716429 0.193739 0 255 0 255 
-0.281138 -0.221489 -0.316442 0.593861 -0.0488974 0.80308 0 255 0 255 
0.452259 0.102619 0.265468 -0.324833 -0.495613 -0.805513 0 255 0 255 
0.0282681 0.327139 -0.538069 -0.518535 -0.301751 0.800043 0 255 0 255 
0.502827 0.100152 0.225892 -0.562452 -0.494326 -0.662789 0 255 0 255 
0.00476515 0.127777 -0.565943 0.381238 0.529351 0.757922 0 255 0 255 
0.164086 0.292279 -0.443764 -0.495701 -0.147881 0.85581 0 255 0 255 
0.463373 0.111221 0.246472 -0.324833 -0.495613 -0.805513 0 255 0 255 
-0.0639554 -0.0439833 -0.493641 0.914964 -0.395483 0.0802146 0 255 0 255 
0.519194 0.125196 0.183312 -0.560494 -0.506673 -0.65508 0 255 0 255 
-0.0468028 0.177238 -0.597902 0.573822 0.411718 0.707966 0 255 0 255 
0.196477 0.33706 -0.43229 -0.495701 -0.147881 0.85581 0 255 0 255 
-0.827872 -0.0958988 -2.09934 0.985356 0.0616893 -0.158962 0 255 0 255 
-0.32037 0.36217 -0.400553 0.541449 0.762479 0.3542 0 255 0 255 
0.146568 0.830733 -0.749788 -0.00983046 -0.991349 -0.130887 0 255 0 255 
-0.108208 0.382528 -0.658094 -0.00742391 -0.932369 -0.361433 0 255 0 255 
-0.0118387 0.156536 -0.618769 0.514998 -0.0290358 0.856699 0 255 0 255 
0.131595 0.299781 -0.491321 -0.495701 -0.147881 0.85581 0 255 0 255 
-0.772823 -0.0195817 -2.23429 -0.886867 0.277252 0.369592 0 255 0 255 
0.211247 0.32845 -0.428034 -0.495701 -0.147881 0.85581 0 255 0 255 
-0.759731 -0.0495823 -2.07705 0.889604 0.456323 -0.01933 0 255 0 255 
-0.396443 0.287409 -1.81009 -0.639315 -0.108824 0.761205 0 255 0 255 
-0.312235 0.789139 -1.84311 0.355873 -0.456382 0.815518 0 255 0 255 
-0.207429 0.954625 -1.72642 0.0511805 -0.656376 0.752696 0 255 0 255 
0.0952324 0.19448 -1.67068 -0.404254 0.30224 0.863267 0 255 0 255 
0.0694712 0.16426 -1.65325 0.0348789 0.0553041 0.99786 0 255 0 255 
-0.264321 -0.201311 -0.374525 0.593861 -0.0488974 0.80308 0 255 0 255 
-0.351821 -0.030156 -1.83137 0.936561 0.344998 -0.061886 0 255 0 255 
-0.126004 0.925513 -1.65845 0.272146 -0.594678 0.756502 0 255 0 255 
0.198385 0.793615 -0.7138 0.233971 -0.971442 0.0394833 0 255 0 255 
-0.329721 -0.086992 -1.81287 0.857225 0.296578 0.420958 0 255 0 255 
-0.400111 0.261936 -1.80478 -0.506541 -0.128057 0.852654 0 255 0 255 
-0.195334 0.701029 -1.8716 0.12659 -0.153972 0.979933 0 255 0 255 
-0.354057 0.380747 -1.78497 -0.664092 0.339262 0.666246 0 255 0 255 
-0.337333 0.772084 -1.86309 0.355873 -0.456382 0.815518 0 255 0 255 
0.296737 0.854411 -0.61141 0.337286 -0.941219 0.0185838 0 255 0 255 
-0.295054 -0.172843 -1.8812 -0.885273 -0.374433 0.275848 0 255 0 255 
-0.186463 0.32315 -1.58382 -0.785794 -0.184674 0.590273 0 255 0 255 
-0.156474 0.95965 -1.75751 0.320597 -0.717123 0.618831 0 255 0 255 
-0.410635 0.0587311 -2.08024 -0.677668 -0.204081 0.706482 0 255 0 255 
-0.0454771 0.846868 -1.91289 0.0251294 0.673959 0.738342 0 255 0 255 
-0.018827 0.699677 -1.84463 0.056946 -0.0237012 0.998096 0 255 0 255 
0.436329 0.106408 0.252653 -0.324833 -0.495613 -0.805513 0 255 0 255 
0.458356 0.0978295 0.25317 -0.324833 -0.495613 -0.805513 0 255 0 255 
-0.385052 -0.307025 -1.63464 0.820372 0.558374 0.123319 0 255 0 255 
0.325481 0.195686 -1.70721 0.060215 -0.519136 0.852568 0 255 0 255 
0.411754 0.757079 -1.94115 0.199112 0.892889 0.403861 0 255 0 255 
0.399292 0.723953 -1.92252 0.199112 0.892889 0.403861 0 255 0 255 
0.41891 -0.0153513 -1.94473 -0.705467 -0.678641 0.204362 0 255 0 255 
0.34989 0.190063 -1.65394 0.0602151 -0.519136 0.852568 0 255 0 255 
-0.26235 -0.307837 -1.86364 -0.830282 -0.0538164 0.55474 0 255 0 255 
0.459703 0.868927 -2.04358 0.211349 0.698548 0.683639 0 255 0 255 
0.270617 0.0159335 -1.95597 -0.633108 -0.702515 0.325033 0 255 0 255 
0.225665 0.829833 -0.752047 -0.145832 -0.81759 0.557027 0 255 0 255 
0.125626 0.837474 -0.723467 -0.0617345 -0.940057 0.335384 0 255 0 255 
-0.000295877 0.00401527 -1.43686 -0.478017 0.296638 0.826744 0 255 0 255 
0.403911 0.850573 -0.393739 -0.0789826 -0.968045 -0.238015 0 255 0 255 
0.490182 0.86931 -2.10278 0.175618 0.854257 0.489289 0 255 0 255 
-2.08896 0.0745459 -3.75631 0.474012 0.87341 0.111656 0 255 0 255 
-0.230367 0.285952 -1.70592 -0.619849 -0.278857 0.733502 0 255 0 255 
0.585587 0.895606 -0.556218 0.0881235 -0.992847 -0.0805602 0 255 0 255 
-0.0317563 -0.32591 -1.549 -0.733175 0.283857 0.617964 0 255 0 255 
0.353237 0.176703 -1.72835 -0.657978 -0.657351 0.36736 0 255 0 255 
0.192034 0.261306 -1.81285 -0.38386 -0.920652 0.0710755 0 255 0 255 
0.0537822 0.839585 -0.776529 -0.0617345 -0.940057 0.335384 0 255 0 255 
-2.52722 -0.174867 -4.65915 0.0891142 0.993462 -0.0713543 0 255 0 255 
0.280874 0.0407451 -1.87708 -0.425465 -0.748841 0.50815 0 255 0 255 
-0.235456 -0.219632 -0.400533 0.593861 -0.0488969 0.803081 0 255 0 255 
-0.0777541 -0.00594425 -0.472468 0.959254 0.275262 -0.0637454 0 255 0 255 
-0.0248883 -0.304825 -1.55502 -0.733175 0.283857 0.617964 0 255 0 255 
0.439522 0.916526 -2.03407 0.310761 0.633738 0.708381 0 255 0 255 
-0.0761703 -0.0267846 -0.482884 0.220573 -0.101878 0.970035 0 255 0 255 
0.048933 -0.287905 -1.50633 -0.569784 -0.169363 0.804153 0 255 0 255 
0.375801 0.931028 -2.07227 -0.280238 -0.879929 -0.383656 0 255 0 255 
0.31873 0.879209 -1.74065 -0.271786 -0.961681 -0.0360944 0 255 0 255 
0.341033 0.855509 -1.54216 -0.289495 -0.957149 0.00767543 0 255 0 255 
-0.220625 0.427991 -1.68574 -0.681861 0.138673 0.718217 0 255 0 255 
-0.109395 0.2759 -1.65937 0.401769 0.747087 0.529568 0 255 0 255 
-0.0851707 0.238612 -1.59393 0.312763 0.912865 0.262408 0 255 0 255 
0.0442411 0.137412 -1.40211 0.294907 0.439501 0.848451 0 255 0 255 
0.218414 0.107011 0.176472 0.0143558 -0.99271 -0.119672 0 255 0 255 
-0.248267 0.35376 -0.551006 -0.587649 -0.789808 -0.175704 0 255 0 255 
0.151405 0.257641 -1.63299 0.0748535 -0.0527263 0.9958 0 255 0 255 
-0.660725 -0.124078 -2.08692 0.75152 0.653384 0.0911465 0 255 0 255 
-0.0289128 0.730415 -1.94691 0.056946 -0.0237012 0.998096 0 255 0 255 
0.107106 0.282041 -1.681 -0.0218846 0.921192 0.388494 0 255 0 255 
-0.337544 -0.0490058 -1.90309 0.936561 0.344998 -0.061886 0 255 0 255 
0.172316 0.260885 -1.62304 0.00316706 0.100709 0.994911 0 255 0 255 
-0.292961 0.284625 -1.81491 -0.569124 -0.176776 0.803025 0 255 0 255 
0.0303089 0.283192 -1.7951 0.0219953 0.946925 0.3207 0 255 0 255 
-0.0265842 0.0263739 -1.47695 -0.464683 0.0702738 0.882684 0 255 0 255 
0.294645 0.205758 -1.66257 0.194091 -0.848479 0.492354 0 255 0 255 
-1.15638 -0.0959905 -2.47465 -0.492726 -0.428948 0.757116 0 255 0 255 
0.271663 0.188605 -1.70122 0.194091 -0.848479 0.492354 0 255 0 255 
0.139947 -0.0614949 -1.44182 -0.153052 0.892561 0.424158 0 255 0 255 
0.216885 0.17372 -1.63476 0.208146 -0.0345513 0.977487 0 255 0 255 
0.0129304 -0.0883253 -1.48687 -0.39943 -0.347344 0.848415 0 255 0 255 
0.0267316 0.00448036 -1.37459 -0.114351 -0.183562 0.976334 0 255 0 255 
-0.077361 0.807527 -1.94157 0.452588 0.281628 0.846079 0 255 0 255 
0.174041 -0.0739922 -1.31512 -0.39844 -0.481103 0.780888 0 255 0 255 
-0.0543835 -0.0389399 -0.477188 0.220573 -0.101878 0.970035 0 255 0 255 
-0.0307014 0.130291 -1.48518 -0.484636 0.247552 0.838955 0 255 0 255 
-0.0645968 -0.0133264 -0.498158 0.220573 -0.101878 0.970035 0 255 0 255 
0.0536057 0.857713 -1.00504 -0.218586 -0.960382 -0.172877 0 255 0 255 
0.14901 -0.0134976 -1.42929 -0.170974 0.752831 0.635621 0 255 0 255 
0.361127 -0.178568 -2.21836 -0.88125 -0.232861 0.411308 0 255 0 255 
-0.764101 -0.0851389 -2.23308 -0.462933 -0.695612 0.549379 0 255 0 255 
0.0108192 -0.291732 -1.5111 -0.569784 -0.169363 0.804153 0 255 0 255 
-0.893847 -0.148062 -2.28624 -0.421342 -0.850278 0.315434 0 255 0 255 
-0.383201 -0.00881016 -1.86104 0.956867 0.236901 -0.168175 0 255 0 255 
-0.790161 -0.143875 -2.15464 0.0848278 0.920812 0.380671 0 255 0 255 
-0.799844 0.0276567 -2.18239 0.991158 0.037214 -0.127363 0 255 0 255 
-0.753956 -0.0739024 -2.14725 0.843908 0.523054 -0.119309 0 255 0 255 
0.029913 0.824889 -0.754121 0.185375 -0.962389 -0.198606 0 255 0 255 
0.327493 0.860796 -1.13976 -0.0614722 -0.996783 -0.0514249 0 255 0 255 
-0.784121 -0.00463367 -2.04024 0.869121 0.489385 0.0716318 0 255 0 255 
0.548766 0.833763 -0.466848 0.0286458 -0.999438 0.0173963 0 255 0 255 
-0.853278 -0.415875 -2.15643 0.951123 -0.0201288 -0.308154 0 255 0 255 
-3.18135 0.0908032 -5.82617 0.285628 0.953252 -0.0986241 0 255 0 255 
-0.0902513 0.0141905 -1.51932 -0.644841 -0.0699331 0.761111 0 255 0 255 
-0.109565 0.188738 -1.55547 -0.621871 0.17165 0.764077 0 255 0 255 
-0.200452 -0.184293 -0.434053 0.593861 -0.0488969 0.803081 0 255 0 255 
-0.840801 -0.0773715 -2.24643 -0.886867 0.277252 0.369592 0 255 0 255 
-0.676275 -0.178146 -2.30216 -0.437761 -0.851938 0.287345 0 255 0 255 
0.392489 -0.352937 -2.07031 -0.987701 -0.145324 0.0576801 0 255 0 255 
-0.827254 -0.393759 -2.35436 0.941923 -0.20403 0.266745 0 255 0 255 
0.401416 -0.129923 -2.03117 -0.961274 -0.169898 0.216995 0 255 0 255 
0.0551755 0.828328 -0.708504 0.185375 -0.962389 -0.198606 0 255 0 255 
-0.15729 -0.406887 -1.57617 -0.793549 0.273346 0.543656 0 255 0 255 
-0.238821 -0.485449 -1.81169 -0.771849 0.568032 0.285635 0 255 0 255 
-0.254898 -0.297176 -1.88364 -0.830282 -0.0538164 0.55474 0 255 0 255 
-0.832467 -0.00630492 -2.2091 -0.886867 0.277252 0.369592 0 255 0 255 
0.326829 0.834891 -1.50005 0.193604 -0.979023 -0.0634946 0 255 0 255 
-0.00992858 -0.354273 -1.54776 -0.733175 0.283857 0.617964 0 255 0 255 
0.526413 0.823758 -0.718149 0.129124 -0.991591 -0.00862573 0 255 0 255 
0.387313 0.897417 -1.97665 0.552843 0.511428 0.65788 0 255 0 255 
-1.09023 -0.0986641 -2.50165 -0.492726 -0.428948 0.757116 0 255 0 255 
-0.0632957 -0.0410525 -0.596936 0.90932 -0.191434 0.369446 0 255 0 255 
0.343621 -0.141476 -2.19817 -0.88125 -0.232861 0.411308 0 255 0 255 
-0.181463 -0.457373 -1.72844 -0.742201 0.301662 0.598446 0 255 0 255 
-3.60585 -0.0739685 -6.21781 -0.05687 -0.919625 0.388659 0 255 0 255 
0.0575546 0.123888 -1.47268 0.865612 0.00731109 0.500662 0 255 0 255 
-0.208628 -0.377639 -1.71215 -0.847888 -0.000876626 0.530174 0 255 0 255 
-0.291104 -0.522553 -1.93943 -0.888601 0.328309 0.320316 0 255 0 255 
-0.024656 -0.192649 -1.55922 -0.569784 -0.169363 0.804153 0 255 0 255 
-0.269643 0.561683 -1.88762 -0.0186614 0.265976 0.963799 0 255 0 255 
-0.315807 0.584485 -1.96054 0.18625 0.263011 0.946645 0 255 0 255 
0.552771 0.861556 -1.83344 -0.0801319 0.786014 0.612994 0 255 0 255 
-0.421541 0.398849 -0.487988 -0.425797 -0.878271 -0.217571 0 255 0 255 
-1.03498 0.00562727 -2.27804 -0.316746 -0.735987 0.598327 0 255 0 255 
0.446389 0.832287 -2.00472 0.327574 0.577744 0.747601 0 255 0 255 
0.638558 0.823656 -1.99723 -0.0757928 -0.996713 -0.0285986 0 255 0 255 
-0.120081 -0.552413 -1.54692 -0.423264 -0.459273 0.780971 0 255 0 255 
0.510175 0.108509 0.221004 -0.560494 -0.506673 -0.65508 0 255 0 255 
-0.171977 -0.395945 -1.80992 -0.696634 0.237603 0.676939 0 255 0 255 
0.113236 0.203991 -1.59754 0.323257 0.591667 0.738536 0 255 0 255 
0.0928362 0.924605 -1.9018 -0.362007 0.70861 0.605659 0 255 0 255 
0.246766 -0.0566738 -1.32715 -0.172438 0.610026 0.773391 0 255 0 255 
0.261196 0.893946 -1.98088 0.431704 0.679847 0.592823 0 255 0 255 
0.208724 0.102772 -1.63401 0.155743 -0.158249 0.975039 0 255 0 255 
0.487988 0.958245 -2.13498 -0.160852 -0.887184 -0.432471 0 255 0 255 
0.348865 -0.0843398 -2.19582 -0.667473 -0.648388 0.366161 0 255 0 255 
-0.0725145 -0.353035 -1.61095 -0.45346 0.890607 0.0345373 0 255 0 255 
0.39035 -0.068954 -1.93035 0.900057 -0.18044 0.39666 0 255 0 255 
-0.29133 -0.563636 -1.74785 -0.448705 0.374064 0.811628 0 255 0 255 
-0.254688 -0.574452 -1.75235 -0.448705 0.374064 0.811628 0 255 0 255 
0.222929 -0.274098 -1.87608 0.797449 -0.158031 0.582323 0 255 0 255 
0.0358846 -0.578408 -1.66447 0.291196 -0.865855 0.406817 0 255 0 255 
-0.0560774 0.3765 -0.605161 -0.381678 0.256335 0.888039 0 255 0 255 
-0.238085 -0.555261 -1.72057 -0.448705 0.374064 0.811628 0 255 0 255 
0.730404 -0.0472813 -2.0309 0.2505 0.198387 0.947572 0 255 0 255 
-0.123065 -0.602815 -1.69166 -0.62799 -0.647185 0.432181 0 255 0 255 
0.322473 0.154519 -1.73061 -0.657978 -0.657351 0.36736 0 255 0 255 
0.061683 -0.289565 -1.52989 -0.569784 -0.169363 0.804153 0 255 0 255 
0.275631 0.20849 -1.64017 0.0720196 -0.746801 0.661136 0 255 0 255 
-0.101642 0.219611 -1.64978 0.312762 0.912865 0.262408 0 255 0 255 
0.204487 0.870767 -1.86001 -0.186417 -0.878321 0.440229 0 255 0 255 
0.12729 -0.58018 -1.5429 0.502295 -0.635994 0.585843 0 255 0 255 
0.213525 -0.00972372 -1.42608 -0.170974 0.752831 0.635621 0 255 0 255 
-0.132077 -0.623366 -1.64413 -0.62799 -0.647185 0.432181 0 255 0 255 
0.0927308 0.0853522 -1.48437 0.294907 0.439501 0.848451 0 255 0 255 
0.238783 0.110522 0.213759 0.0143558 -0.99271 -0.119672 0 255 0 255 
-0.116053 0.385439 -0.702125 -0.0982166 -0.938761 -0.330276 0 255 0 255 
-0.770493 -0.158761 -1.99026 0.816541 0.576774 0.0243567 0 255 0 255 
0.06626 0.0407925 -1.43773 0.411865 0.31169 0.856281 0 255 0 255 
0.290868 1.00496 -2.22936 0.0998612 0.88884 0.447204 0 255 0 255 
-0.255506 -0.43699 -1.78829 -0.679267 0.428099 0.596094 0 255 0 255 
-0.365296 -0.100062 -1.88592 0.936561 0.344998 -0.0618858 0 255 0 255 
0.383088 0.0302712 -2.08804 -0.593851 -0.757455 0.271299 0 255 0 255 
0.735416 0.802181 -1.95165 0.125086 -0.991616 -0.0324255 0 255 0 255 
0.245481 0.218169 -1.6583 0.0805221 -0.557182 0.826477 0 255 0 255 
0.20953 0.168069 -0.424074 -0.552749 0.00205323 0.833346 0 255 0 255 
-0.23453 0.222376 -1.71332 -0.487064 -0.733446 0.474158 0 255 0 255 
-0.0100452 0.97542 -2.14634 0.172804 -0.93065 -0.322536 0 255 0 255 
0.0813611 0.0242354 -1.53805 -0.157627 0.107675 0.981611 0 255 0 255 
0.443333 0.103724 0.267151 -0.324833 -0.495613 -0.805513 0 255 0 255 
0.451651 -0.059306 -1.95935 -0.669784 -0.682669 0.29215 0 255 0 255 
-0.242716 0.862993 -1.86733 0.204134 -0.698153 0.68623 0 255 0 255 
-0.29662 -0.500976 -1.93459 -0.911969 0.277266 0.302386 0 255 0 255 
0.0221214 -0.710889 -1.67953 0.246119 -0.156669 0.956494 0 255 0 255 
-0.117708 -0.723067 -1.82517 0.38246 0.869634 0.312188 0 255 0 255 
0.0100659 -0.627165 -1.81705 -0.52236 0.832882 0.182886 0 255 0 255 
-0.00123543 -0.741743 -1.69987 -0.399196 -0.3468 0.848747 0 255 0 255 
0.534489 -0.714689 -2.0641 0.398164 -0.0335115 0.916702 0 255 0 255 
0.138445 -0.529132 -1.67789 -0.624377 0.770898 -0.125973 0 255 0 255 
0.13946 -0.606832 -1.78147 -0.596334 0.802086 0.0322937 0 255 0 255 
0.215909 -0.601713 -1.75575 -0.501586 0.863133 -0.0584281 0 255 0 255 
0.027762 -0.0861935 -1.46137 -0.180361 -0.433612 0.882865 0 255 0 255 
-0.332848 -0.546377 -1.79669 -0.806276 0.436068 0.399704 0 255 0 255 
-4.40913 -1.23509 -7.57679 0.185407 -0.954276 0.234481 0 255 0 255 
-0.00163835 -0.703558 -1.73194 -0.399196 -0.3468 0.848747 0 255 0 255 
-0.0870698 -0.708097 -1.75993 0.526019 0.8484 -0.0593354 0 255 0 255 
-0.177312 -0.580365 -1.67388 -0.713583 -0.271905 0.645653 0 255 0 255 
-0.125966 -0.647992 -1.70857 -0.566285 -0.720096 0.400977 0 255 0 255 
0.00234473 -0.649334 -1.89204 -0.312253 0.886528 0.341418 0 255 0 255 
0.15898 -0.586912 -1.8036 -0.596334 0.802086 0.0322937 0 255 0 255 
0.512631 -0.754274 -2.02087 0.50688 0.21578 0.834573 0 255 0 255 
-0.194475 -0.598276 -1.67626 -0.713582 -0.271905 0.645653 0 255 0 255 
0.526453 -0.674842 -1.95918 0.554805 0.14522 0.819209 0 255 0 255 
-0.0604182 -0.745769 -1.69601 0.526019 0.8484 -0.0593354 0 255 0 255 
-0.282852 -0.284774 -1.83678 -0.933156 -0.281705 0.2233 0 255 0 255 
0.699809 0.855486 -2.02585 0.0143788 -0.987107 -0.159417 0 255 0 255 
0.883309 0.836363 -1.23497 -0.140799 -0.987968 0.0639935 0 255 0 255 
0.215704 0.933527 -1.85016 -0.0765155 -0.991252 -0.107537 0 255 0 255 
0.303578 0.864058 -1.13747 -0.0614722 -0.996783 -0.0514249 0 255 0 255 
-0.136153 -0.405195 -1.72507 -0.86326 0.307302 0.400434 0 255 0 255 
0.120654 0.794843 -0.61257 0.00827981 -0.999966 0.000188122 0 255 0 255 
0.356218 0.223472 -1.66647 0.0602149 -0.519136 0.852568 0 255 0 255 
-0.120863 0.14274 -0.491733 0.219868 0.267905 0.938022 0 255 0 255 
-0.124697 0.147668 -0.48335 0.219868 0.267905 0.938022 0 255 0 255 
0.666423 0.867117 -1.97831 -0.0757927 -0.996713 -0.0285986 0 255 0 255 
0.0963795 0.835354 -0.76453 -0.0617345 -0.940057 0.335384 0 255 0 255 
-2.04402 -0.598516 -2.0938 0.691952 0.369312 -0.620331 0 255 0 255 
-1.98562 -0.6697 -2.04423 0.728912 0.254577 -0.635514 0 255 0 255 
-0.750495 -1.05929 -2.14126 -0.606215 0.0413748 0.794224 0 255 0 255 
-1.93359 -0.519331 -1.99016 0.980452 0.0810965 0.179267 0 255 0 255 
-0.277578 0.32853 -0.553015 0.587649 0.789808 0.175704 0 255 0 255 
0.21203 0.0336735 -2.13699 -0.677466 -0.678047 0.285118 0 255 0 255 
0.29376 0.885311 -1.87381 -0.476 -0.873578 -0.101413 0 255 0 255 
-0.0282404 0.719151 -1.39572 0.434679 -0.885646 -0.163357 0 255 0 255 
0.349939 0.0831026 -1.70117 0.654704 -0.674516 0.34116 0 255 0 255 
0.303401 0.132302 -1.83488 -0.753935 -0.488453 0.439312 0 255 0 255 
-0.142656 -0.015591 -0.507732 0.959254 0.275262 -0.0637454 0 255 0 255 
0.208172 -0.0979462 -1.65174 0.628996 -0.756315 0.179867 0 255 0 255 
0.142766 0.122921 0.315029 -0.931919 -0.361862 -0.0241482 0 255 0 255 
0.17644 0.10794 0.391625 -0.311457 -0.89458 0.320502 0 255 0 255 
-0.387477 0.124211 0.310697 0.121095 0.879953 -0.459368 0 255 0 255 
0.257245 0.115952 0.554172 -0.736762 -0.249799 -0.628317 0 255 0 255 
0.243575 0.120299 0.556494 -0.736762 -0.249799 -0.628317 0 255 0 255 
0.237635 0.129239 0.571802 -0.736762 -0.249799 -0.628317 0 255 0 255 
0.310238 0.132464 0.561973 0.116034 0.254473 -0.960094 0 255 0 255 
-0.012774 0.118938 0.445286 -0.381613 -0.910767 -0.157719 0 255 0 255 
-1.08817 -0.121519 -0.0303614 0.740296 -0.390148 -0.547491 0 255 0 255 
-1.20412 -0.176476 0.191941 0.36853 0.678574 0.635392 0 255 0 255 
-0.122962 0.134487 0.516702 -0.54919 -0.158377 -0.820553 0 255 0 255 
-4.33523 -0.0647103 -0.935064 -0.00349948 -0.938949 0.344039 0 255 0 255 
-3.41628 -0.0467811 -0.533451 0.120364 -0.87353 0.471653 0 255 0 255 
-0.117609 0.108962 0.485947 0.895258 0.0902859 -0.436305 0 255 0 255 
-1.22598 -0.261352 -0.107117 0.588866 -0.0902749 -0.803174 0 255 0 255 
-1.02691 -0.266219 0.162874 0.835773 0.4169 0.357321 0 255 0 255 
-1.04044 -0.261588 0.156233 0.667569 0.388482 0.635164 0 255 0 255 
0.2352 0.135403 0.562803 -0.736762 -0.249799 -0.628317 0 255 0 255 
-0.111607 0.134848 0.533435 0.00899141 0.208338 -0.978016 0 255 0 255 
-0.361623 0.122792 0.323271 0.121095 0.879953 -0.459368 0 255 0 255 
0.0192227 0.117282 0.478126 -0.0456155 -0.991102 0.125042 0 255 0 255 
0.347248 0.126972 0.570092 0.22512 -0.268312 -0.936659 0 255 0 255 
-0.0960137 0.138469 0.496665 0.270891 0.889046 -0.369074 0 255 0 255 
-1.0686 -0.187004 0.145016 0.86222 0.430719 0.266565 0 255 0 255 
0.0385525 0.147419 0.616254 0.523252 -0.799586 -0.294738 0 255 0 255 
0.0363433 -0.295384 0.644625 0.549922 0.699186 -0.456864 0 255 0 255 
-1.03421 -0.217511 0.230003 0.959036 0.119471 -0.256861 0 255 0 255 
-4.45511 -0.998589 -0.615122 -0.0270633 0.895354 -0.444532 0 255 0 255 
-0.186507 -0.294457 0.620588 -0.238632 0.389278 -0.889673 0 255 0 255 
-3.97592 -0.962185 -0.845589 0.0739344 0.902898 -0.423448 0 255 0 255 
-3.90644 -0.95228 -0.799893 0.254639 -0.839959 0.479196 0 255 0 255 
-4.66045 -0.0595844 -0.78343 0.084821 -0.960334 0.265639 0 255 0 255 
-0.190559 0.0191371 0.667829 0.0320434 0.954363 -0.296927 0 255 0 255 
-0.00782681 0.124663 0.662788 0.267426 0.932613 -0.242313 0 255 0 255 
-0.132562 0.126241 0.668792 -0.755907 0.175784 -0.630638 0 255 0 255 
-0.0527179 -0.146196 0.696942 -0.386511 -0.147827 -0.910361 0 255 0 255 
-0.148235 0.137474 0.698479 -0.836979 0.331331 -0.435529 0 255 0 255 
-4.96126 -1.00051 -0.821642 0.26698 0.277652 -0.922839 0 255 0 255 
-3.6447 -1.021 -0.620685 0.283772 -0.261189 0.922634 0 255 0 255 
-4.02732 -1.04015 -0.789354 0.0739344 0.902898 -0.423448 0 255 0 255 
-4.19683 0.0742044 -0.53027 0.196834 -0.971873 -0.129306 0 255 0 255 
-4.61962 -0.112118 -0.660855 0.108812 -0.990036 0.0893763 0 255 0 255 
-0.0182135 0.143103 0.694917 -0.0164726 0.965523 -0.259798 0 255 0 255 
-1.17736 -0.21475 0.200155 0.316945 0.434568 0.843028 0 255 0 255 
-0.189023 0.0178896 0.68566 -0.371921 0.916001 -0.150391 0 255 0 255 
-0.16357 0.0516743 0.699497 0.0224709 -0.262172 -0.96476 0 255 0 255 
-2.12801 0.172723 0.398746 0.0277007 -0.80347 -0.5947 0 255 0 255 
-3.42703 0.136894 0.169243 0.207365 0.919759 0.333232 0 255 0 255 
-3.61408 0.241295 0.0297068 0.15467 0.45801 -0.875388 0 255 0 255 
-0.402677 -0.264641 0.604705 0.23041 0.311423 -0.921915 0 255 0 255 
-4.28582 -0.962062 -0.514073 0.0739344 0.902898 -0.423448 0 255 0 255 
-4.3576 0.0222805 -0.59674 0.00887246 -0.992982 0.117932 0 255 0 255 
-2.2218 0.113763 0.465771 0.404148 -0.540999 -0.737553 0 255 0 255 
-1.52341 0.0634917 0.477105 0.0819762 -0.98677 -0.139876 0 255 0 255 
-4.14262 0.00426701 -0.162284 0.287259 -0.811001 0.509665 0 255 0 255 
-4.02884 -0.0213896 -0.1735 0.843251 -0.527384 0.103893 0 255 0 255 
-2.27259 0.172949 0.480024 -0.0502158 -0.969082 -0.241576 0 255 0 255 
-0.146445 0.00212517 0.736438 0.515368 0.292864 -0.805374 0 255 0 255 
-0.118994 0.116071 0.757207 -0.701847 0.489246 -0.517734 0 255 0 255 
-0.14492 0.0110694 0.73289 0.515368 0.292864 -0.805374 0 255 0 255 
-0.171808 -0.148813 0.738863 0.78066 0.595762 0.188781 0 255 0 255 
-0.170415 -0.14227 0.690738 -0.83349 -0.424467 -0.353727 0 255 0 255 
-1.33095 0.11555 0.475191 0.248442 0.680825 -0.689024 0 255 0 255 
-0.158521 0.0354919 0.72766 0.488911 -0.340173 -0.803273 0 255 0 255 
-0.0229214 0.143111 0.644148 -0.402943 -0.690883 -0.600265 0 255 0 255 
-0.151887 0.0960104 0.718229 0.99889 0.0419816 -0.0213726 0 255 0 255 
-1.54977 0.13555 0.596916 -0.040281 -0.772371 -0.633894 0 255 0 255 
-0.0784012 -0.162662 0.686425 0.10975 0.424345 -0.898825 0 255 0 255 
0.0271902 -0.297402 0.653594 0.549922 0.699186 -0.456864 0 255 0 255 
0.0441577 -0.27768 0.657016 0.549922 0.699186 -0.456864 0 255 0 255 
0.0582295 -0.289041 0.662173 0.549922 0.699186 -0.456864 0 255 0 255 
-0.0605872 0.152714 0.677493 -0.220634 -0.967007 -0.127349 0 255 0 255 
-0.172157 0.163902 0.776977 0.333213 0.640066 -0.692305 0 255 0 255 
-2.2315 0.144134 0.408228 -0.0783552 -0.973361 -0.215473 0 255 0 255 
-1.57073 0.162808 0.427103 0.369491 0.0779921 -0.925955 0 255 0 255 
-0.189499 0.100475 0.727915 0.233387 0.816258 -0.528445 0 255 0 255 
-1.55044 0.136764 0.563838 0.661674 -0.729423 -0.173577 0 255 0 255 
-0.196323 0.0995599 0.738626 0.227092 0.806363 -0.546084 0 255 0 255 
-0.120517 0.170444 0.704488 -0.179842 0.857183 -0.482591 0 255 0 255 
-0.160306 0.139457 0.697849 -0.89767 0.0121045 -0.440502 0 255 0 255 
-0.192772 0.0803421 0.701437 -0.0357449 0.302699 -0.952416 0 255 0 255 
0.157738 0.133998 0.994711 0.90863 0.366242 -0.200646 0 255 0 255 
0.00887895 0.148706 0.630312 -0.488876 0.289932 -0.822764 0 255 0 255 
-3.02137 0.218913 0.120936 0.130169 -0.846993 -0.515421 0 255 0 255 
-2.08284 0.11585 0.843804 0.143884 0.888025 -0.436704 0 255 0 255 
-1.99232 0.114315 0.513958 -0.145002 -0.538234 -0.830228 0 255 0 255 
-1.77697 -0.0110034 0.575877 0.250036 0.28177 -0.92633 0 255 0 255 
-1.41713 0.0654098 0.675187 0.654235 -0.0655215 -0.753448 0 255 0 255 
-1.3493 0.0684229 0.716283 -0.332465 -0.296367 -0.89534 0 255 0 255 
-1.67396 -0.0250742 0.577628 0.209984 0.131855 -0.968773 0 255 0 255 
-1.40715 0.0250954 0.845773 -0.121467 0.639289 -0.759313 0 255 0 255 
-1.5043 0.069584 0.797502 0.655502 -0.755161 0.0070076 0 255 0 255 
-2.50362 0.0332442 0.785098 0.171623 -0.876633 0.449511 0 255 0 255 
-3.73279 -0.0354036 0.722501 -0.0741383 -0.161803 -0.984034 0 255 0 255 
-4.88299 -0.999559 0.246319 -0.190104 0.981496 0.0229325 0 255 0 255 
-5.68854 -1.11789 0.0625415 -0.0463257 0.990538 0.12918 0 255 0 255 
-1.98348 0.0894585 0.870032 0.0346913 -0.998195 0.0490228 0 255 0 255 
-1.80917 0.0739815 0.573969 0.476364 -0.338921 -0.811302 0 255 0 255 
-2.00599 -0.210245 0.510264 -0.154198 0.166599 -0.973893 0 255 0 255 
-5.03456 -1.06944 0.282932 -0.164256 0.985456 0.0435595 0 255 0 255 
-2.09108 -0.190873 0.479561 0.162841 -0.781021 -0.6029 0 255 0 255 
-2.25566 0.0492983 0.800699 0.156398 0.338485 -0.927883 0 255 0 255 
-5.13834 0.002911 -0.916287 -0.133611 0.164347 0.977312 0 255 0 255 
-3.35533 -0.0386646 0.742606 0.232318 0.97154 0.0462475 0 255 0 255 
-3.16096 0.213144 0.105259 0.546376 0.837535 0.0029788 0 255 0 255 
-1.44631 0.1085 0.500404 0.162946 0.898854 -0.40683 0 255 0 255 
-2.18013 -0.25296 0.661602 0.511985 0.838318 0.187336 0 255 0 255 
-0.343251 0.154696 0.940789 -0.273825 0.920535 -0.27863 0 255 0 255 
-1.09027 0.133092 0.842888 0.261573 0.950821 -0.165891 0 255 0 255 
-1.33239 0.122495 0.85308 0.262481 -0.951142 0.162581 0 255 0 255 
0.0984498 0.159028 0.946566 0.530103 0.798642 -0.284891 0 255 0 255 
-0.0604404 0.144363 0.940738 -0.243425 -0.960995 -0.13127 0 255 0 255 
-1.16925 0.134049 0.688299 0.0665921 -0.996688 0.0466742 0 255 0 255 
-0.0586571 0.153821 0.923087 -0.243425 -0.960995 -0.13127 0 255 0 255 
-0.177951 0.0502229 0.705258 0.0173812 -0.284114 -0.958633 0 255 0 255 
-1.18361 0.13292 0.670865 -0.159069 -0.938666 -0.305947 0 255 0 255 
-0.0201625 0.144521 0.935754 -0.135283 -0.248389 -0.959167 0 255 0 255 
-1.50872 0.139159 0.64407 0.615608 -0.7571 -0.218695 0 255 0 255 
-0.180304 0.130527 0.637384 0.339164 0.864828 -0.370191 0 255 0 255 
-0.0386565 0.00393295 0.677238 -0.124848 -0.692285 -0.710742 0 255 0 255 
-0.088284 0.138015 0.536329 0.305455 0.414581 -0.857216 0 255 0 255 
-1.38202 0.136277 0.712274 -0.358302 -0.394112 -0.846343 0 255 0 255 
-1.46274 0.0694865 0.828964 0.275384 -0.0359076 -0.960664 0 255 0 255 
-0.0628338 0.151688 0.935088 -0.243425 -0.960995 -0.13127 0 255 0 255 
-0.127737 0.15464 0.934252 -0.0231523 -0.450633 -0.892409 0 255 0 255 
0.00606072 0.156107 0.934813 -0.158189 0.241469 -0.957429 0 255 0 255 
-0.670163 0.145178 0.94052 -0.124796 -0.991529 0.0360063 0 255 0 255 
-0.735646 0.138685 0.93721 -0.0970628 -0.964579 -0.245286 0 255 0 255 
0.144924 0.128666 0.92865 -0.372397 -0.919831 -0.123414 0 255 0 255 
-0.15311 0.131183 0.734922 -0.65924 -0.65538 -0.368618 0 255 0 255 
-1.38199 0.059042 0.478448 0.383649 0.643754 -0.662113 0 255 0 255 
0.193703 0.0710523 0.996066 0.47319 -0.142988 -0.869279 0 255 0 255 
-0.190279 0.16019 0.774065 0.541402 0.614336 -0.573999 0 255 0 255 
-1.08422 0.142676 0.64596 -0.0484856 -0.904941 -0.422766 0 255 0 255 
-1.45303 0.136143 0.494211 0.0286476 0.723957 -0.68925 0 255 0 255 
-2.28674 -0.123899 0.763294 0.636521 0.567244 -0.522566 0 255 0 255 
-2.23853 -0.186881 0.750076 0.393204 0.473721 -0.788022 0 255 0 255 
-0.995013 0.0960628 0.912925 0.249216 0.0813724 -0.965023 0 255 0 255 
-0.198258 -0.0872605 0.691506 -0.113952 0.105182 -0.987903 0 255 0 255 
-1.44795 -0.0171028 0.694643 0.386583 0.811578 0.438057 0 255 0 255 
-1.30824 0.0791683 0.596997 -0.358229 -0.47509 -0.803718 0 255 0 255 
-0.068435 0.155104 0.957567 -0.369314 -0.925972 -0.0786315 0 255 0 255 
-0.986182 0.152051 0.62123 0.0205757 -0.935511 -0.352698 0 255 0 255 
-0.15915 0.119062 0.715425 0.994271 0.0819492 -0.0686294 0 255 0 255 
-0.291954 0.1228 0.92952 0.296791 -0.954374 -0.0329582 0 255 0 255 
-0.689829 0.152423 0.871193 -0.210584 -0.973344 -0.090861 0 255 0 255 
-0.62199 0.115144 0.909133 -0.0989042 -0.982977 -0.154837 0 255 0 255 
-3.96492 0.104852 -0.647639 0.1983 0.944411 -0.262232 0 255 0 255 
0.0479542 0.125292 0.649319 0.711128 -0.662519 -0.235298 0 255 0 255 
0.149162 0.121964 0.981601 0.884145 0.313326 -0.346576 0 255 0 255 
-0.474899 0.131457 0.775747 -0.0240968 0.976866 -0.21249 0 255 0 255 
-0.0173793 0.138058 0.588446 0.535497 0.420683 -0.732304 0 255 0 255 
-0.581506 0.157599 0.842483 -0.153586 -0.98309 -0.0997277 0 255 0 255 
-0.63354 0.141425 0.816623 -0.287762 -0.948995 -0.128851 0 255 0 255 
-0.353688 0.109974 0.8758 0.455603 -0.874478 0.166475 0 255 0 255 
-0.576571 0.100617 0.831078 -0.153586 -0.98309 -0.0997277 0 255 0 255 
-0.0641949 0.145731 0.634131 -0.326223 -0.648841 -0.687448 0 255 0 255 
-2.3217 0.122758 0.777484 0.228834 0.781035 -0.581051 0 255 0 255 
-0.106505 0.02345 0.656445 -0.31892 -0.450473 -0.833885 0 255 0 255 
0.255655 0.13879 0.556416 -0.736762 -0.249799 -0.628317 0 255 0 255 
-4.06653 0.0294519 0.74415 0.571868 0.0553062 0.818479 0 255 0 255 
-3.86231 0.060804 0.834503 0.252561 0.797362 0.548111 0 255 0 255 
-3.60176 0.0626755 0.938269 -0.05983 -0.934436 -0.351069 0 255 0 255 
-4.13351 0.0458383 0.829727 0.686096 -0.670313 0.282761 0 255 0 255 
-3.79658 -0.056177 0.953156 0.193115 0.488188 -0.851105 0 255 0 255 
-0.107899 0.167445 0.939256 -0.0161862 -0.281703 -0.959365 0 255 0 255 
0.254513 0.170721 0.9605 -0.594762 -0.771135 0.227179 0 255 0 255 
-0.556289 0.116023 0.972717 -0.0954313 -0.987482 -0.125587 0 255 0 255 
0.140374 0.127273 0.99477 0.884145 0.313326 -0.346576 0 255 0 255 
0.259421 0.179926 0.954417 0.631009 0.687392 -0.35961 0 255 0 255 
-0.668552 0.134751 0.953071 -0.103274 -0.992607 0.0637643 0 255 0 255 
0.266733 0.169959 0.999301 -0.910867 -0.365887 0.190911 0 255 0 255 
-2.38466 0.155134 0.875709 -0.0502075 0.886292 -0.460398 0 255 0 255 
0.287531 0.174342 1.00137 0.826114 0.378803 -0.417185 0 255 0 255 
-4.64542 -1.00869 0.3925 0.75545 -0.630611 0.177836 0 255 0 255 
-3.17188 -0.117923 0.941787 0.254493 -0.64971 0.716318 0 255 0 255 
-3.27283 0.0348098 0.824496 0.276975 0.709244 -0.648273 0 255 0 255 
-3.0719 0.0262683 0.891705 0.30637 0.88859 -0.341388 0 255 0 255 
-2.53974 0.173608 0.860875 0.264636 0.510234 -0.818309 0 255 0 255 
-3.93192 -0.11139 0.735632 0.1025 -0.178399 -0.978605 0 255 0 255 
-3.69729 0.107566 0.749616 0.171769 0.706241 -0.686819 0 255 0 255 
-3.89043 -0.209381 0.785136 0.316502 -0.283666 -0.905185 0 255 0 255 
0.303723 0.131434 1.01686 0.175097 0.486804 -0.855782 0 255 0 255 
-1.48723 -0.130661 1.01002 0.27814 0.482471 -0.830578 0 255 0 255 
-3.79882 -0.0460337 0.79562 -0.0193771 -0.235114 -0.971775 0 255 0 255 
0.311038 0.117975 1.07547 0.129144 -0.983401 -0.127453 0 255 0 255 
-2.37858 0.10677 0.794383 0.057027 0.785817 -0.615824 0 255 0 255 
-1.31834 0.101255 0.820948 0.482014 -0.830483 0.279214 0 255 0 255 
-1.39734 -0.0125299 0.815859 0.361779 0.872558 -0.328267 0 255 0 255 
-1.01047 0.0980195 0.859173 0.261573 0.950821 -0.16589 0 255 0 255 
-0.17218 -0.123622 0.712233 -0.86252 -0.413404 -0.291816 0 255 0 255 
-1.19131 0.139259 0.785737 0.220934 0.972096 -0.078856 0 255 0 255 
-0.217933 0.123857 0.651231 -0.812445 -0.317833 -0.48879 0 255 0 255 
0.0189202 0.158013 0.921587 -0.0282424 0.264507 -0.96397 0 255 0 255 
-1.55493 0.0934058 0.624149 -0.106116 -0.950714 -0.291346 0 255 0 255 
-1.19556 0.106527 0.603014 0.341766 -0.697967 -0.629315 0 255 0 255 
-0.780794 0.158942 0.931416 -0.197541 -0.944601 -0.262121 0 255 0 255 
-2.40245 0.0342266 0.751629 -0.106304 0.651088 -0.751522 0 255 0 255 
-1.23142 0.184264 0.582741 -0.264515 -0.834293 -0.483723 0 255 0 255 
-4.04632 0.160379 0.64979 0.545569 -0.496209 0.675375 0 255 0 255 
-1.48631 -0.171215 0.794031 0.655484 -0.754857 0.0230719 0 255 0 255 
-4.95163 -1.0198 1.30661 0.220256 -0.974656 0.0391535 0 255 0 255 
-4.70721 -1.04333 1.35243 0.57086 -0.801431 0.178401 0 255 0 255 
-5.34123 -1.10259 1.2543 -0.169748 0.985263 -0.021029 0 255 0 255 
-1.66639 0.0942614 0.829297 0.100238 -0.203104 -0.974013 0 255 0 255 
0.218777 0.192012 0.940879 -0.538189 -0.814007 0.218509 0 255 0 255 
-0.23611 0.0108819 0.752216 -0.630298 -0.493258 -0.599518 0 255 0 255 
-1.61165 -0.0622584 1.03949 0.137195 0.435589 -0.889629 0 255 0 255 
-1.51896 0.019638 1.15837 0.377742 0.868328 -0.32143 0 255 0 255 
-3.87839 0.0898986 0.719364 0.302983 0.164855 -0.938629 0 255 0 255 
-2.20961 0.157401 1.39671 0.163689 0.967961 -0.190413 0 255 0 255 
-3.07119 -0.0975845 0.714591 0.17112 0.956299 -0.237086 0 255 0 255 
0.155306 -0.0938806 1.07289 0.199181 -0.219671 -0.955024 0 255 0 255 
0.238479 -0.15277 1.09212 0.249718 0.0829674 -0.964758 0 255 0 255 
0.338029 0.16162 1.03026 0.356442 0.491165 -0.7948 0 255 0 255 
0.339965 0.163967 1.0267 0.604058 0.593935 -0.531371 0 255 0 255 
0.279052 0.178846 0.961747 -0.796562 -0.556079 0.237202 0 255 0 255 
0.267812 0.154795 0.994607 -0.637174 -0.770681 -0.00777532 0 255 0 255 
-2.31297 0.159283 1.35121 0.24074 0.889799 -0.387687 0 255 0 255 
-1.35199 -0.0635093 1.09031 0.173651 0.643631 -0.745376 0 255 0 255 
0.311946 0.177191 1.00921 0.429574 0.469808 -0.771198 0 255 0 255 
-1.23451 0.137823 0.702433 0.228212 0.964191 0.135113 0 255 0 255 
0.124587 0.143959 1.10419 -0.292387 -0.939465 -0.178649 0 255 0 255 
0.158918 0.107585 1.13163 -0.130592 -0.971993 -0.195388 0 255 0 255 
-2.43896 -0.077233 1.30318 -0.328723 -0.215527 -0.919505 0 255 0 255 
-2.56697 0.163665 1.2865 0.0557321 0.971768 -0.229264 0 255 0 255 
-2.55244 0.111886 1.36934 0.00474881 0.932607 -0.360862 0 255 0 255 
-1.45626 -0.110752 1.01683 0.243043 0.479257 -0.843352 0 255 0 255 
-2.22061 -0.144176 0.641096 0.566247 0.812006 0.141456 0 255 0 255 
0.344139 -0.0402558 1.15335 0.581953 0.40447 -0.705503 0 255 0 255 
-2.13515 0.14469 1.75451 0.0123066 0.760913 -0.648738 0 255 0 255 
-1.99222 0.146243 1.74235 0.0706671 0.70578 -0.704898 0 255 0 255 
