ply
format ascii 1.0
comment VCGLIB generated
element vertex 728
property float x
property float y
property float z
property float nx
property float ny
property float nz
property uchar red
property uchar green
property uchar blue
property uchar alpha
element face 0
property list uchar int vertex_indices
end_header
-0.521717 0.0787131 1.21038 0.715604 -0.106657 -0.690315 0 0 0 255 
-0.643398 0.105326 1.35368 -0.355936 0.735046 -0.577076 0 0 0 255 
-0.654756 0.0800911 1.36382 -0.639115 0.768984 0.0139943 0 0 0 255 
-1.70656 0.112664 2.11649 -0.361081 0.701711 0.614184 0 0 0 255 
-0.611514 0.220392 1.42075 0.70878 -0.241943 0.662642 0 0 0 255 
-0.748079 0.0903688 1.4083 0.274367 0.95409 -0.120144 0 0 0 255 
-0.751626 0.0938873 1.42048 -0.0363951 0.981488 -0.188035 0 0 0 255 
-0.734123 0.0502351 1.41002 0.362594 0.365404 0.857325 0 0 0 255 
-0.504745 0.616894 1.32286 0.741367 -0.16235 0.651167 0 0 0 255 
-0.700556 0.464847 1.48114 0.471391 -0.0299292 0.881417 0 0 0 255 
-1.59555 0.22756 2.11764 0.0288573 0.81649 -0.576639 0 0 0 255 
-0.298105 0.794317 2.62057 0.54288 0.792735 -0.277224 0 0 0 255 
-0.72637 0.521083 1.54317 0.707883 0.166529 -0.686418 0 0 0 255 
-0.250363 0.778415 2.63071 0.54288 0.792735 -0.277224 0 0 0 255 
-0.286364 0.396577 2.68492 0.694657 -0.701714 0.15827 0 0 0 255 
-0.653257 0.538223 1.48712 0.539241 0.0725835 0.839018 0 0 0 255 
-0.712182 0.118694 1.66056 -0.513328 0.848551 -0.128283 0 0 0 255 
-0.581653 0.398409 1.45554 0.555665 -0.0960999 0.825834 0 0 0 255 
-0.70206 0.115149 1.65177 -0.529061 0.848456 0.0147526 0 0 0 255 
-1.55148 0.235302 2.0744 0.117464 0.23082 0.96588 0 0 0 255 
-0.611231 0.175827 1.46705 0.961462 -0.108761 0.252512 0 0 0 255 
-1.55978 0.154392 2.0827 0.774475 0.130722 0.618951 0 0 0 255 
-0.788387 0.434288 1.53173 0.601399 -0.152926 0.784177 0 0 0 255 
-1.54969 0.240624 2.06551 0.117464 0.23082 0.96588 0 0 0 255 
-1.64903 0.138509 2.07736 0.515749 0.649979 -0.558149 0 0 0 255 
-1.57126 0.186937 2.0751 0.878644 0.332193 -0.342975 0 0 0 255 
-0.260896 0.450424 1.6639 -0.314888 0.637396 0.703259 0 0 0 255 
-0.626441 0.189108 1.47466 0.961462 -0.108761 0.252512 0 0 0 255 
-1.34453 -0.209977 2.22586 0.373902 0.301835 0.876979 0 0 0 255 
-0.674631 0.549214 1.49423 0.670237 0.206797 0.712753 0 0 0 255 
-1.39147 -0.214431 2.15728 0.940965 0.0610629 0.332951 0 0 0 255 
-0.748639 0.515169 1.49637 -0.671115 -0.170838 0.721401 0 0 0 255 
-1.34397 -0.276129 2.22591 -0.422184 -0.00290798 0.906505 0 0 0 255 
-1.40439 -0.277923 2.17053 -0.341429 0.174699 0.92353 0 0 0 255 
-1.43845 -0.246382 2.17258 -0.40039 0.713284 -0.575251 0 0 0 255 
-0.756319 0.355742 1.51712 0.164648 0.047977 0.985185 0 0 0 255 
-1.55897 0.222461 2.10591 0.670975 0.0520904 0.739648 0 0 0 255 
-0.600416 0.225994 1.40188 0.70878 -0.241942 0.662642 0 0 0 255 
-0.655352 0.147462 1.57604 0.366524 0.804832 0.466804 0 0 0 255 
-0.671657 0.570583 1.50047 0.664129 0.175286 0.726779 0 0 0 255 
-0.771633 0.551814 1.50569 -0.465067 -0.0887061 0.88082 0 0 0 255 
-0.57292 0.171262 1.41063 -0.619793 0.61627 -0.485869 0 0 0 255 
-1.68361 0.135641 2.07162 0.41229 0.683882 0.601932 0 0 0 255 
-1.55142 -0.259036 2.03003 0.314661 0.369721 0.87424 0 0 0 255 
-1.69084 -0.28577 2.08972 -0.0236208 0.161929 0.98652 0 0 0 255 
-0.638896 0.276175 1.41032 0.801411 -0.00772497 0.598064 0 0 0 255 
-1.35574 -0.224314 2.14626 0.386664 -0.256703 0.885773 0 0 0 255 
-0.656948 0.152144 1.58148 0.366524 0.804832 0.466804 0 0 0 255 
-0.771126 0.330893 1.50106 0.354782 -0.143134 0.923928 0 0 0 255 
-1.82726 -0.315426 2.00959 0.249213 0.967972 0.0303772 0 0 0 255 
-1.76431 -0.319671 1.96206 -0.646474 0.108036 0.755248 0 0 0 255 
-2.00837 0.332493 1.87252 0.431189 0.585912 -0.686136 0 0 0 255 
-0.723095 0.572148 1.49794 -0.0622499 0.695627 0.715701 0 0 0 255 
-0.727712 0.133007 1.64136 -0.445892 0.894158 -0.0407657 0 0 0 255 
-0.905398 0.432638 1.52039 0.106425 0.0501676 0.993054 0 0 0 255 
-0.802158 0.359165 1.52085 0.164648 0.047977 0.985185 0 0 0 255 
-1.75898 0.120119 2.02748 -0.12272 -0.457223 0.880844 0 0 0 255 
-1.76235 0.129446 1.96346 0.445619 0.869986 -0.211065 0 0 0 255 
-0.733196 0.503798 1.49962 0.300476 0.661019 -0.687582 0 0 0 255 
-0.717288 0.545702 1.53677 0.954875 -0.189753 -0.228492 0 0 0 255 
-0.760853 0.447142 1.53321 0.599634 -0.170492 0.781902 0 0 0 255 
-1.61596 0.23835 2.11845 -0.40111 -0.0208998 0.915792 0 0 0 255 
-0.719763 0.534148 1.52403 0.954875 -0.189753 -0.228492 0 0 0 255 
-0.517087 0.7829 2.57905 0.527047 0.801615 -0.282197 0 0 0 255 
-1.55658 0.201444 2.07853 0.76977 -0.50992 0.383973 0 0 0 255 
-1.5591 0.200251 2.08046 0.727524 -0.462734 0.506543 0 0 0 255 
-0.72377 0.13017 1.66423 -0.513328 0.848551 -0.128283 0 0 0 255 
-1.65196 0.129855 2.07265 0.515749 0.649979 -0.558149 0 0 0 255 
-1.97852 0.323974 1.8641 -0.369578 -0.360031 0.856615 0 0 0 255 
-1.91119 -0.054584 1.929 0.931991 0.241919 -0.269942 0 0 0 255 
-1.979 0.249915 1.83672 0.364603 0.0496311 0.929839 0 0 0 255 
-1.93633 -0.0721094 1.96357 0.599867 0.583865 -0.547048 0 0 0 255 
-1.78836 0.129089 2.04315 -0.412318 -0.0729384 0.908116 0 0 0 255 
-1.82869 0.100799 2.02965 -0.326478 -0.513034 0.793857 0 0 0 255 
-1.83547 0.0883997 2.00217 0.671015 0.593217 -0.444784 0 0 0 255 
-1.86345 0.0850628 2.00015 -0.306665 0.0451854 0.950744 0 0 0 255 
-1.83711 0.11699 1.98085 0.893416 0.165324 0.417702 0 0 0 255 
-1.62772 0.0962899 2.06263 -0.0302678 -0.590104 0.80676 0 0 0 255 
-1.95593 0.138012 1.86323 0.394963 0.521368 0.756425 0 0 0 255 
-1.99644 0.185073 1.83247 0.910686 0.325361 0.254541 0 0 0 255 
-2.005 -0.0396364 1.89512 -0.39968 0.422784 0.813332 0 0 0 255 
-1.97628 0.33935 1.87037 -0.438996 0.463347 0.7698 0 0 0 255 
-1.95182 -0.0320506 1.94831 0.369462 0.83511 0.407539 0 0 0 255 
-1.80847 0.0795474 2.00831 0.00143489 0.929042 -0.369971 0 0 0 255 
-1.96333 0.138147 1.86901 0.394963 0.521368 0.756425 0 0 0 255 
-1.99328 0.274534 1.84133 -0.108085 0.538012 0.835979 0 0 0 255 
-1.95479 -0.107054 1.85243 0.46913 0.879613 -0.078733 0 0 0 255 
-1.30386 -0.238203 2.1557 -0.46372 0.885466 -0.0302318 0 0 0 255 
-1.80282 0.105355 2.03598 -0.0691434 -0.401853 0.91309 0 0 0 255 
-2.26382 -0.0652386 2.1495 0.25043 -0.53119 0.809396 0 0 0 255 
-1.80851 0.135133 2.04239 0.129693 0.814799 0.565051 0 0 0 255 
-1.87019 -0.0322536 1.98852 0.62307 0.435129 -0.649959 0 0 0 255 
-1.90778 -0.0528708 1.99098 -0.00680015 0.252149 0.967665 0 0 0 255 
-1.91707 -0.0620821 1.9659 -0.272226 -0.774433 0.571093 0 0 0 255 
-1.85558 0.122695 1.9842 0.468927 0.751727 0.463696 0 0 0 255 
-1.98114 -0.076533 1.92894 -0.365411 -0.317602 0.874988 0 0 0 255 
-1.95829 0.17023 1.83891 -0.437196 0.226958 0.870258 0 0 0 255 
-1.97547 -0.0580857 1.82967 0.327671 0.899851 0.287925 0 0 0 255 
-1.86603 -0.0644822 1.97547 -0.360209 -0.123239 0.924696 0 0 0 255 
-1.34 -0.221594 2.13722 -0.643693 0.735813 -0.21033 0 0 0 255 
-1.9937 -0.102155 1.81953 0.105519 0.854413 -0.508767 0 0 0 255 
-1.96395 -0.0419635 1.81974 0.528938 0.771977 -0.352528 0 0 0 255 
-1.87558 0.0800283 1.98343 -0.206867 0.324928 0.922837 0 0 0 255 
-1.61363 0.231447 2.11083 0.371602 0.819096 -0.437028 0 0 0 255 
-1.63084 0.303108 2.06049 0.412928 0.742588 0.527308 0 0 0 255 
-1.95994 -0.115946 1.84613 0.698475 0.652375 -0.294176 0 0 0 255 
-1.93622 0.328604 1.87654 -0.614078 0.572132 0.543667 0 0 0 255 
-1.9703 -0.0922011 1.82498 0.843298 -0.532519 0.0726077 0 0 0 255 
-1.82107 -0.165872 2.00283 0.430872 0.707256 -0.56048 0 0 0 255 
-2.94875 0.728533 1.3803 -0.210856 0.858936 0.466657 0 0 0 255 
-2.75781 0.590051 1.36872 0.132249 0.563795 0.815258 0 0 0 255 
-2.92408 0.801122 1.28906 -0.14175 0.871723 0.469047 0 0 0 255 
-1.80368 -0.162894 2.02118 0.399996 0.671338 0.623946 0 0 0 255 
-1.78492 0.113634 2.04097 0.166127 -0.588053 0.791578 0 0 0 255 
-1.91551 -0.0780967 1.90615 0.872453 -0.305865 -0.381147 0 0 0 255 
-2.01415 0.233651 1.86273 0.241463 0.930361 0.275907 0 0 0 255 
-1.98419 0.249164 1.83619 0.364603 0.0496311 0.929839 0 0 0 255 
-1.56061 0.150361 2.07534 0.774475 0.130722 0.618951 0 0 0 255 
-1.88012 0.138042 1.98539 -0.0822208 -0.431147 0.898528 0 0 0 255 
-1.88026 0.354042 1.96465 0.449692 0.68077 -0.578213 0 0 0 255 
-2.01636 0.223425 1.83809 -0.44944 -0.457876 0.767042 0 0 0 255 
-1.96808 -0.0615101 1.82502 -0.366344 0.225419 0.902761 0 0 0 255 
-1.983 -0.0911736 1.89273 0.463848 0.823755 -0.325995 0 0 0 255 
-1.34266 -0.236355 2.1581 -0.631236 0.773646 -0.0548936 0 0 0 255 
-1.80581 0.282062 1.4826 -0.488249 -0.259988 0.833078 0 0 0 255 
-1.99197 -0.0377167 1.82013 0.752173 0.337249 0.566126 0 0 0 255 
-1.95141 -0.0169156 1.91932 0.3312 -0.348593 0.876807 0 0 0 255 
-1.85566 0.151403 1.99685 0.782767 0.263752 -0.563658 0 0 0 255 
-1.86841 0.127576 1.98737 -0.233353 -0.248808 0.940022 0 0 0 255 
-1.98902 -0.0387484 1.90865 -0.605417 0.196254 0.771333 0 0 0 255 
-1.87192 0.707761 1.33745 0.462548 0.789024 0.404339 0 0 0 255 
-1.94128 0.343982 1.91746 -0.519607 -0.62615 0.58133 0 0 0 255 
-2.03633 0.247213 1.83288 -0.55736 -0.0682534 0.827461 0 0 0 255 
-1.91862 0.177979 1.81613 -0.0538731 0.693097 0.718829 0 0 0 255 
-3.14528 0.836903 1.26974 0.181284 0.779671 0.599374 0 0 0 255 
-2.28126 0.759488 1.25646 0.0132749 0.965665 0.259451 0 0 0 255 
-1.80238 0.255342 1.48463 -0.356683 -0.344222 0.868498 0 0 0 255 
-2.11998 0.774107 1.20175 0.104043 -0.251238 0.962317 0 0 0 255 
-1.65105 0.269871 1.45864 0.299235 0.399552 0.866497 0 0 0 255 
-1.88038 -0.0768906 1.98467 0.133474 -0.286906 0.948615 0 0 0 255 
-1.97705 -0.104211 1.84724 0.46913 0.879613 -0.078733 0 0 0 255 
-2.01297 -0.073844 1.82874 0.872038 0.472405 -0.127997 0 0 0 255 
-2.00934 -0.0660621 1.80228 -0.628856 0.617877 -0.471983 0 0 0 255 
-1.96045 0.123456 1.8796 0.394964 0.521368 0.756425 0 0 0 255 
-1.85259 0.703574 1.31062 0.462548 0.789024 0.404339 0 0 0 255 
-1.82968 0.0886342 2.03386 -0.270866 -0.577404 0.770218 0 0 0 255 
-1.79685 0.0745783 2.02263 -0.328143 0.735544 -0.592703 0 0 0 255 
-2.08262 0.0641528 1.98888 -0.528726 0.734137 -0.426019 0 0 0 255 
-2.09398 0.796038 1.22503 0.112436 0.862409 0.493568 0 0 0 255 
-1.92602 0.772268 1.24751 0.135702 0.886736 0.44191 0 0 0 255 
-1.99664 -0.0872769 1.83891 0.547511 0.743895 -0.383213 0 0 0 255 
-1.97632 -0.0885585 1.82383 0.379057 -0.134604 0.915531 0 0 0 255 
-1.97593 -0.110154 1.81545 0.228909 0.969271 0.0900769 0 0 0 255 
-1.68203 -0.22464 2.08524 0.138402 0.270441 0.952736 0 0 0 255 
-1.67426 -0.162351 2.08432 0.223267 -0.00410336 0.974749 0 0 0 255 
-1.81397 0.129757 2.04571 -0.0987292 0.0468223 0.994012 0 0 0 255 
-1.79603 0.163958 2.04453 -0.483838 -0.386241 0.785314 0 0 0 255 
-1.84412 0.164074 2.0231 0.356596 0.910533 -0.209213 0 0 0 255 
-1.89615 -0.0178455 1.97813 -0.134484 0.216203 0.967042 0 0 0 255 
-1.87353 0.100158 2.01061 -0.319036 -0.585048 0.74561 0 0 0 255 
-2.04298 0.238724 1.833 -0.500305 -0.304264 0.810628 0 0 0 255 
-2.01815 0.201713 1.83597 -0.458153 -0.42735 0.779402 0 0 0 255 
-2.92697 0.798373 1.28711 -0.14175 0.871723 0.469047 0 0 0 255 
-1.7959 0.277583 1.49187 -0.488249 -0.259988 0.833078 0 0 0 255 
-1.88182 -0.149656 2.00793 0.405027 0.795177 -0.451272 0 0 0 255 
-1.75747 0.0897752 2.05335 -0.120747 -0.413031 0.902677 0 0 0 255 
-1.87264 -0.0493073 2.00855 0.0312908 0.00285451 0.999506 0 0 0 255 
-1.78269 0.123523 2.05418 0.0909029 -0.486424 0.868981 0 0 0 255 
-1.93856 0.143561 2.00112 0.669025 0.355776 0.652555 0 0 0 255 
-1.8466 0.116064 1.98301 -0.24197 0.0854403 0.966515 0 0 0 255 
-1.81267 0.385451 1.41594 -0.0397205 0.499025 0.865677 0 0 0 255 
-1.82918 0.685734 1.27876 0.803596 0.321905 0.500609 0 0 0 255 
-1.76272 -0.226384 2.05715 0.150462 0.855009 -0.496307 0 0 0 255 
-1.83946 -0.154344 2.02248 0.481464 0.71596 -0.505563 0 0 0 255 
-1.91816 -0.0237925 1.93912 -0.320489 -0.0273329 0.946858 0 0 0 255 
-1.8696 -0.0414535 1.9841 -0.323186 -0.0850453 0.942506 0 0 0 255 
-1.96088 -0.0683722 1.90977 -0.439503 0.894841 -0.078082 0 0 0 255 
-2.0151 0.0131707 1.93213 0.0881275 0.416893 0.904673 0 0 0 255 
-3.27909 0.840713 1.23133 -0.158163 0.955522 0.248923 0 0 0 255 
-1.807 0.14343 2.04593 -0.272431 0.181775 0.944849 0 0 0 255 
-1.81931 0.697655 1.24667 0.805526 0.451446 0.38383 0 0 0 255 
-2.73152 -0.0194879 1.95847 0.20066 0.451602 0.869363 0 0 0 255 
-1.99025 -0.0131973 1.82178 -0.013825 -0.00412631 0.999896 0 0 0 255 
-1.73047 0.225117 1.4715 0.428439 0.554138 -0.713703 0 0 0 255 
-1.92549 -0.0449377 1.94102 0.45358 0.206459 0.866972 0 0 0 255 
-1.93724 0.190548 1.86151 0.756127 -0.214147 0.618395 0 0 0 255 
-2.00568 0.19578 1.83395 0.930174 0.178442 -0.320836 0 0 0 255 
-2.0159 -0.028524 1.82256 -0.588846 0.00428264 0.808234 0 0 0 255 
-1.86179 0.446062 1.39638 -0.258598 -0.1517 0.953999 0 0 0 255 
-1.73865 0.225369 1.47122 -0.184293 -0.634691 0.750469 0 0 0 255 
-1.65119 0.117236 1.47084 0.436277 0.790839 0.429228 0 0 0 255 
-1.62716 0.242255 2.07935 0.517293 0.172444 0.838255 0 0 0 255 
-1.85717 0.677774 1.35474 0.769955 0.498503 0.398326 0 0 0 255 
-1.82486 0.655174 1.24989 0.481898 0.876146 0.0119077 0 0 0 255 
-1.73518 0.76332 1.22089 -0.553949 0.827494 0.0916165 0 0 0 255 
-1.64968 0.41109 1.35361 0.544807 0.835578 0.0706783 0 0 0 255 
-1.80702 0.631866 1.2624 0.330754 0.943195 -0.0313975 0 0 0 255 
-1.8757 0.164024 1.99776 0.434878 0.4903 -0.755306 0 0 0 255 
-1.99453 0.395505 1.84701 0.735921 0.116498 -0.66697 0 0 0 255 
-2.059 0.300052 1.83573 0.523875 0.425274 0.738036 0 0 0 255 
-1.95449 0.201509 1.86613 -0.296056 -0.0143267 0.955063 0 0 0 255 
-1.77861 0.277707 1.4763 -0.29988 -0.355989 0.885067 0 0 0 255 
-1.64828 0.143161 1.47857 0.436277 0.790839 0.429228 0 0 0 255 
-1.79101 0.400668 1.40242 -0.130051 0.38709 0.912824 0 0 0 255 
-2.38619 0.606334 1.05045 0.667382 0.616782 -0.417351 0 0 0 255 
-1.73691 0.465682 1.40526 0.306019 0.500756 0.809689 0 0 0 255 
-1.87131 0.731593 1.25707 0.636698 0.700599 0.322145 0 0 0 255 
-2.01225 -0.00635132 1.92628 0.49077 0.0414999 0.8703 0 0 0 255 
-1.9741 -0.0313547 1.92858 -0.433221 -0.436339 0.788624 0 0 0 255 
-2.19837 0.587729 1.37252 0.894342 0.44633 0.0306962 0 0 0 255 
-1.65656 0.120137 1.49563 0.436277 0.790839 0.429228 0 0 0 255 
-1.60871 0.317225 1.41533 0.424503 0.556657 0.714094 0 0 0 255 
-1.71388 0.811598 1.17323 0.660167 -0.446191 -0.604229 0 0 0 255 
-1.82373 0.741984 1.13939 0.295556 0.666625 0.684293 0 0 0 255 
-1.77891 0.795121 1.13459 -0.283159 0.537483 0.794313 0 0 0 255 
-1.77159 0.750214 1.14313 -0.558684 0.608518 0.56354 0 0 0 255 
-1.89624 0.697331 1.3482 0.0364595 0.946343 0.321101 0 0 0 255 
-1.72863 0.708526 1.13468 -0.558684 0.608518 0.56354 0 0 0 255 
-1.73907 0.791583 1.10052 0.541376 -0.457267 -0.705563 0 0 0 255 
-1.98707 0.712461 1.2658 0.071637 0.800188 0.595456 0 0 0 255 
-1.83004 0.705627 1.28461 0.794569 0.46847 0.386259 0 0 0 255 
-1.64316 0.151317 1.47581 0.436277 0.790839 0.429228 0 0 0 255 
-1.59897 0.285327 1.39783 0.372279 -0.852367 0.36726 0 0 0 255 
-1.72776 0.741475 1.15982 -0.54697 0.718951 0.428873 0 0 0 255 
-1.76609 0.741583 1.13736 -0.558684 0.608518 0.56354 0 0 0 255 
-1.55963 0.823182 1.11395 -0.329321 0.327606 0.885563 0 0 0 255 
-1.64893 0.765604 1.07656 0.804734 -0.484722 0.342708 0 0 0 255 
-1.57756 0.799334 1.10665 -0.618263 -0.378331 0.688924 0 0 0 255 
-1.52256 0.829041 1.12292 -0.2972 0.68679 0.663318 0 0 0 255 
-1.59279 0.806586 1.09028 0.383989 0.760897 -0.523057 0 0 0 255 
-1.53364 0.809725 1.12249 -0.2972 0.68679 0.663318 0 0 0 255 
-1.52131 0.786006 1.11751 -0.0965321 0.820723 -0.563113 0 0 0 255 
-1.51464 0.845606 1.09995 0.103729 0.772274 0.626765 0 0 0 255 
-1.84765 -0.107332 1.45953 -0.538386 0.270816 0.797997 0 0 0 255 
-1.68462 0.118437 1.47943 -0.109783 0.34947 0.930494 0 0 0 255 
-1.92786 0.303571 1.32399 -0.408426 0.00273782 0.912787 0 0 0 255 
-1.62655 0.0979988 1.46575 0.616248 0.700212 0.360474 0 0 0 255 
-1.66299 0.802368 1.15198 -0.303572 0.944568 -0.125044 0 0 0 255 
-1.98416 0.0323009 1.25742 0.038348 0.728586 0.68388 0 0 0 255 
-2.23041 0.154473 0.995503 -0.666276 -0.00310612 0.745699 0 0 0 255 
-2.05865 0.23138 1.06529 -0.0360322 0.0524045 0.997976 0 0 0 255 
-2.05426 0.180858 1.0636 0.259892 -0.319471 0.91126 0 0 0 255 
-2.4192 0.114677 0.868061 0.22444 0.391011 0.892601 0 0 0 255 
-1.57198 0.277071 1.38361 0.893976 -0.321594 0.312064 0 0 0 255 
-1.8571 0.711425 1.30152 0.462548 0.789024 0.404339 0 0 0 255 
-1.8615 0.269313 1.36171 0.890424 0.429868 -0.149529 0 0 0 255 
-1.75608 0.848469 1.04834 0.550177 0.697915 0.458498 0 0 0 255 
-1.7201 0.824753 0.966475 0.350382 0.865613 0.357696 0 0 0 255 
-1.57005 0.829253 1.07898 -0.0326518 0.990633 -0.13259 0 0 0 255 
-1.6605 0.663953 1.05807 0.660847 0.10323 0.743388 0 0 0 255 
-1.59596 0.723628 1.08521 -0.0486994 -0.572796 0.81825 0 0 0 255 
-1.54949 0.389654 1.28372 0.481161 -0.66685 0.56903 0 0 0 255 
-1.73116 0.848392 0.921875 0.243756 0.89777 0.366869 0 0 0 255 
-1.67538 0.775632 0.978371 -0.365718 0.442503 0.818805 0 0 0 255 
-1.60323 0.804488 1.02398 -0.617679 0.78234 0.0801025 0 0 0 255 
-1.5489 0.768402 1.07797 -0.0677384 0.868138 -0.491678 0 0 0 255 
-1.53588 0.8116 1.0669 0.791534 0.409351 -0.453768 0 0 0 255 
-1.59061 0.840071 1.09584 -0.203881 0.975628 -0.0811392 0 0 0 255 
-1.53356 0.775062 1.06382 0.781509 0.583274 -0.22144 0 0 0 255 
-1.53844 0.791224 1.12458 -0.117681 0.819764 -0.560481 0 0 0 255 
-1.68421 0.8963 0.976852 0.153764 0.959655 0.235412 0 0 0 255 
-1.57463 0.834154 0.969383 -0.299245 0.832907 0.465531 0 0 0 255 
-1.51259 0.319372 1.18765 0.929064 -0.211149 0.303736 0 0 0 255 
-1.5229 0.374371 1.15186 0.830375 0.543647 -0.122171 0 0 0 255 
-1.6243 0.715852 1.01694 -0.50902 0.387293 0.768703 0 0 0 255 
-1.53487 0.752467 1.06983 0.590546 -0.672193 0.446555 0 0 0 255 
-2.25128 0.105452 0.979846 -0.678111 0.278775 0.680036 0 0 0 255 
-2.22396 0.76271 1.31003 0.0638565 0.661184 0.747502 0 0 0 255 
-2.57306 0.359877 0.740728 0.33589 0.898078 0.283962 0 0 0 255 
-1.97441 0.147265 1.16159 0.601497 -0.481937 -0.637132 0 0 0 255 
-1.51727 0.809656 1.10055 0.961321 -0.272335 0.0411644 0 0 0 255 
-2.37586 0.0416953 0.656513 -0.606289 0.779084 0.159506 0 0 0 255 
-2.0942 0.163736 1.07612 0.0594953 -0.73723 0.673017 0 0 0 255 
-1.55421 0.178609 1.26738 -0.177503 0.409654 0.894805 0 0 0 255 
-2.08295 0.14768 0.765957 -0.642309 0.256465 0.722264 0 0 0 255 
-1.8382 0.0706818 0.990308 -0.159715 0.678714 0.716825 0 0 0 255 
-2.34731 0.0801653 0.656342 0.87718 -0.46348 -0.125468 0 0 0 255 
-2.07868 0.122609 0.797256 -0.561466 0.400467 0.724142 0 0 0 255 
-1.74796 0.484551 1.36632 0.560665 0.688463 0.460079 0 0 0 255 
-2.32568 0.139704 0.913947 -0.551574 0.177889 0.814937 0 0 0 255 
-2.61667 0.106693 0.463106 0.320293 -0.679592 -0.659976 0 0 0 255 
-1.62631 0.238781 1.46954 0.328336 0.232451 0.915512 0 0 0 255 
-2.14968 0.166754 1.08422 0.239269 0.802396 -0.546727 0 0 0 255 
-2.43954 0.0880169 0.150217 0.85435 -0.489937 0.173342 0 0 0 255 
-1.67383 0.309617 1.43114 0.267188 0.401332 0.876095 0 0 0 255 
-2.18979 0.419692 0.994123 -0.582196 0.216122 0.783798 0 0 0 255 
-2.55932 0.322016 0.705601 0.33589 0.898078 0.283962 0 0 0 255 
-1.50557 0.151692 1.30839 0.5836 -0.673651 -0.453436 0 0 0 255 
-2.36852 0.0772878 0.917416 -0.509395 0.316955 0.800035 0 0 0 255 
-1.97578 0.249775 1.11258 0.791984 -0.158509 -0.589606 0 0 0 255 
-1.55648 0.372882 1.31387 0.93802 0.0524928 0.342582 0 0 0 255 
-1.54341 0.152296 1.30386 -0.562285 0.582836 0.586632 0 0 0 255 
-2.42802 0.203565 0.539257 0.497163 0.831874 -0.246606 0 0 0 255 
-2.69141 0.44076 0.325726 0.667257 0.737143 -0.106718 0 0 0 255 
-1.85911 0.274987 0.975793 -0.497115 -0.345311 0.796013 0 0 0 255 
-1.79729 0.126675 0.976715 -0.159715 0.678714 0.716825 0 0 0 255 
-1.77609 0.0891722 0.9992 -0.159715 0.678714 0.716825 0 0 0 255 
-1.81681 0.159659 0.924299 -0.639198 -0.289941 0.712292 0 0 0 255 
-1.81263 0.171578 0.905802 -0.639198 -0.289941 0.712292 0 0 0 255 
-1.73973 0.66252 1.30999 0.513791 0.312744 0.79888 0 0 0 255 
-1.58681 0.792302 1.10082 -0.618263 -0.378331 0.688924 0 0 0 255 
-1.4881 0.223267 1.28719 -0.554202 0.618621 0.556927 0 0 0 255 
-2.09507 0.308346 1.07785 0.073998 -0.244223 0.966892 0 0 0 255 
-1.50845 0.169722 1.33041 0.5836 -0.673651 -0.453437 0 0 0 255 
-1.5135 0.173566 1.3365 0.5836 -0.673651 -0.453437 0 0 0 255 
-1.89015 0.674419 1.31968 0.769955 0.498503 0.398326 0 0 0 255 
-1.97223 0.115374 1.14018 0.601498 -0.481937 -0.637132 0 0 0 255 
-2.05124 0.35327 0.908922 0.0492484 0.941719 0.332776 0 0 0 255 
-2.41502 0.259874 0.708018 0.396262 0.913585 -0.0913167 0 0 0 255 
-1.51623 0.351988 1.1728 0.830375 0.543647 -0.122171 0 0 0 255 
-1.72156 0.406776 1.42177 0.229593 0.456336 0.859677 0 0 0 255 
-2.23247 0.418166 0.984623 -0.349236 0.107893 0.930803 0 0 0 255 
-2.56171 0.328972 0.749972 0.267089 0.902903 0.336793 0 0 0 255 
-2.20705 0.181046 0.811859 0.20973 0.962492 0.172115 0 0 0 255 
-2.10215 0.411691 0.814759 0.132667 0.916559 0.377253 0 0 0 255 
-2.09124 0.41304 0.780513 0.132667 0.916559 0.377253 0 0 0 255 
-2.27964 0.219172 0.680283 0.384193 0.766548 -0.514587 0 0 0 255 
-1.94347 0.102127 0.897139 -0.405682 0.548087 0.731453 0 0 0 255 
-2.25133 0.121243 0.282508 -0.578589 0.32016 0.750155 0 0 0 255 
-2.25587 0.139942 0.228705 0.0322055 0.999436 0.00950851 0 0 0 255 
-2.43717 0.101469 0.193664 -0.801244 0.470345 -0.369844 0 0 0 255 
-1.99565 0.147824 0.8471 -0.645105 0.0118936 0.764002 0 0 0 255 
-1.49657 0.165836 1.31981 0.5836 -0.673651 -0.453437 0 0 0 255 
-2.064 0.134641 0.394682 0.370598 0.921357 -0.117296 0 0 0 255 
-2.13113 0.189629 1.10023 -0.00491327 -0.420105 0.907462 0 0 0 255 
-1.55227 0.398562 1.28053 -0.0959226 0.897395 -0.430676 0 0 0 255 
-2.43144 0.0943986 0.219539 0.0768517 0.994498 -0.0711838 0 0 0 255 
-2.20608 0.160257 1.02789 -0.257638 -0.643263 0.720996 0 0 0 255 
-2.05972 0.437771 0.73983 0.0162302 0.938845 0.343958 0 0 0 255 
-2.06699 0.43536 0.663608 0.771323 0.456512 0.443462 0 0 0 255 
-2.40741 0.111664 0.078398 0.179849 0.924485 0.336129 0 0 0 255 
-2.16795 0.0265167 0.34714 -0.546963 0.422263 0.72286 0 0 0 255 
-2.38965 0.131753 0.190636 0.00495176 0.974088 0.226116 0 0 0 255 
-2.36956 0.107388 0.0388354 0.0435106 0.981399 0.186986 0 0 0 255 
-2.36524 0.128434 0.0132289 -0.149081 0.984953 -0.0874233 0 0 0 255 
-2.07026 0.115719 0.392112 0.370598 0.921357 -0.117296 0 0 0 255 
-1.95084 0.185349 0.934789 0.585712 0.610455 0.533184 0 0 0 255 
-1.71751 0.148585 1.46163 -0.502178 -0.149736 0.851702 0 0 0 255 
-1.56244 0.846473 1.01023 -0.530028 0.847975 -0.00297852 0 0 0 255 
-1.53951 0.826582 1.00443 -0.351356 0.71163 0.608385 0 0 0 255 
-1.52766 0.76908 1.04878 0.889823 0.125065 -0.438832 0 0 0 255 
-1.60284 0.79531 1.05547 -0.56365 0.824863 0.0435986 0 0 0 255 
-1.59734 0.789611 1.02752 0.163047 0.873823 0.458093 0 0 0 255 
-1.51647 0.132803 1.3392 0.5836 -0.673651 -0.453436 0 0 0 255 
-1.49396 0.182101 1.29522 -0.554202 0.618621 0.556927 0 0 0 255 
-1.49808 0.183124 1.2983 -0.554202 0.618621 0.556927 0 0 0 255 
-1.87889 0.437414 1.38508 -0.0248082 -0.0707281 0.997187 0 0 0 255 
-1.90771 0.465216 1.39777 -0.234894 0.00505256 0.972008 0 0 0 255 
-1.71484 0.122156 0.686544 0.509738 0.852672 0.114531 0 0 0 255 
-1.56752 0.109453 1.38284 0.259106 0.810026 0.526044 0 0 0 255 
-1.99652 0.296137 1.03289 -0.162841 0.982347 0.0920754 0 0 0 255 
-1.61299 0.0867345 1.47962 0.638483 0.616013 0.461377 0 0 0 255 
-1.5221 0.331636 1.17603 0.929064 -0.211149 0.303736 0 0 0 255 
-1.83658 0.245759 1.32121 0.728339 -0.0251535 -0.684755 0 0 0 255 
-1.55162 0.320697 1.13861 0.685757 0.443422 0.577161 0 0 0 255 
-2.10599 0.427859 0.757272 0.132667 0.916559 0.377253 0 0 0 255 
-2.63791 0.799865 1.26369 0.356601 0.879821 0.314246 0 0 0 255 
-2.5568 0.74077 0.743594 0.753157 0.517533 -0.406096 0 0 0 255 
-1.90544 0.128656 0.939085 0.230784 0.364074 0.902324 0 0 0 255 
-1.85594 -0.0379632 1.47265 0.0209806 -0.189083 0.981737 0 0 0 255 
-1.80307 0.205662 1.41381 0.343834 0.679608 -0.648005 0 0 0 255 
-1.53766 0.846548 1.01925 -0.680749 0.630142 0.3735 0 0 0 255 
-1.5246 0.333661 1.17567 0.929064 -0.211149 0.303736 0 0 0 255 
-1.99075 0.114886 0.285723 0.232427 0.963313 0.134183 0 0 0 255 
-1.92317 0.128382 0.887566 -0.337287 0.525336 0.781191 0 0 0 255 
-2.0416 0.129941 1.05608 0.803541 -0.269515 -0.530738 0 0 0 255 
-2.05771 0.113969 1.1426 0.416396 -0.619751 -0.665224 0 0 0 255 
-2.02946 0.304673 1.02081 -0.162841 0.982347 0.0920754 0 0 0 255 
-1.97363 0.0242347 1.26574 0.038348 0.728586 0.68388 0 0 0 255 
-2.09055 0.143939 1.05574 0.0594953 -0.73723 0.673017 0 0 0 255 
-1.89435 0.332669 0.953393 0.870928 0.391567 -0.296917 0 0 0 255 
-1.81053 0.129616 0.942562 -0.159715 0.678714 0.716825 0 0 0 255 
-1.84439 0.179275 1.38626 0.677612 0.723966 -0.129286 0 0 0 255 
-1.98852 0.376308 1.2877 -0.417931 -0.528416 0.738993 0 0 0 255 
-1.69563 0.297498 1.46339 0.123761 0.403168 0.906719 0 0 0 255 
-1.65575 0.159753 1.39367 0.44639 0.858414 0.252708 0 0 0 255 
-1.59479 0.12266 1.38471 0.462438 0.756303 0.462772 0 0 0 255 
-1.51694 0.132891 1.33788 0.5836 -0.673651 -0.453436 0 0 0 255 
-2.65229 0.385015 0.651356 0.390555 0.919378 -0.0470147 0 0 0 255 
-2.32222 0.103214 0.189924 0.170348 0.941137 -0.291962 0 0 0 255 
-2.03485 0.114392 0.392089 0.233232 0.967864 0.0940325 0 0 0 255 
-2.03949 0.122157 0.398036 0.207169 0.94888 -0.238132 0 0 0 255 
-2.38075 0.0849355 0.105817 -0.0183282 0.993773 0.109902 0 0 0 255 
-2.3296 0.114955 0.0702289 -0.245882 0.960751 0.128449 0 0 0 255 
-2.22005 0.126322 0.120442 -0.0457712 0.99752 -0.0534703 0 0 0 255 
-2.23481 0.119712 0.0806857 -0.0474999 0.978679 0.199828 0 0 0 255 
-2.20934 0.12652 0.26657 0.0251819 0.994369 0.102937 0 0 0 255 
-2.61844 0.353952 0.356721 0.77658 0.614239 -0.140123 0 0 0 255 
-2.5698 0.368451 0.557169 0.574861 0.796972 0.185391 0 0 0 255 
-2.02143 0.101264 1.15406 0.392966 -0.60663 -0.69107 0 0 0 255 
-2.66721 0.369616 0.538741 0.586089 0.794766 0.15763 0 0 0 255 
-2.3262 0.125933 0.0131935 -0.0186401 0.988531 0.149861 0 0 0 255 
-2.54069 -0.210313 0.960008 -0.443419 0.51257 0.73529 0 0 0 255 
-2.68919 -0.00980076 0.753806 -0.216754 0.37839 0.89991 0 0 0 255 
-2.02068 0.320605 0.997677 -0.0888189 0.971666 0.219037 0 0 0 255 
-1.70486 0.123836 0.659363 0.484553 0.87476 0.00198556 0 0 0 255 
-2.25057 0.0883467 0.231658 -0.0487026 0.998572 -0.0219513 0 0 0 255 
-2.10087 0.0981657 0.337531 -0.64512 0.748061 0.155647 0 0 0 255 
-2.08159 0.0748545 1.14632 0.315939 0.886355 0.338464 0 0 0 255 
-2.13224 0.35521 0.816879 0.854859 0.498216 0.144902 0 0 0 255 
-1.92358 0.383791 0.855916 0.0258549 0.761675 0.647444 0 0 0 255 
-2.01718 0.0990134 0.019111 0.633447 0.479155 0.607582 0 0 0 255 
-2.02846 0.13311 -0.0838948 -0.0947864 0.994666 -0.0406947 0 0 0 255 
-2.04725 0.11094 -0.12167 -0.734083 0.319337 0.599288 0 0 0 255 
-2.0021 0.107929 -0.0540446 -0.391636 0.916922 -0.0766525 0 0 0 255 
-1.69866 0.117368 0.665861 0.509738 0.852672 0.114531 0 0 0 255 
-2.01744 0.0576183 -0.0772697 -0.420009 0.476556 0.772325 0 0 0 255 
-1.67687 0.153376 1.45964 0.342055 0.840374 0.42044 0 0 0 255 
-2.00717 0.324834 1.15535 0.551328 0.737258 -0.390497 0 0 0 255 
-2.39026 0.122832 0.184022 0.00495175 0.974088 0.226116 0 0 0 255 
-2.42034 -0.17235 1.03465 -0.453013 0.486993 0.746738 0 0 0 255 
-2.27838 -0.030397 -0.0952021 0.288627 -0.1826 0.939868 0 0 0 255 
-2.22944 0.119244 0.0564412 -0.109634 0.935967 0.334584 0 0 0 255 
-1.99038 0.121723 0.146258 0.0456326 -0.414353 0.908972 0 0 0 255 
-1.97659 0.0962957 0.347205 0.195642 0.980286 0.0276249 0 0 0 255 
-2.07482 -0.00609756 0.0536767 -0.453664 0.888261 0.0719861 0 0 0 255 
-2.053 0.104027 0.0334974 0.862764 0.448777 -0.232889 0 0 0 255 
-2.04642 0.127219 -0.00677812 0.160247 0.96646 -0.200691 0 0 0 255 
-2.01656 0.0116176 0.109591 0.622288 -0.184234 -0.760799 0 0 0 255 
-2.08977 0.0821613 -0.0632443 -0.482612 0.240876 0.84206 0 0 0 255 
-2.01673 0.0286136 0.06479 -0.505135 0.852959 -0.131528 0 0 0 255 
-2.37404 0.111683 0.102217 -0.0398348 0.99656 0.0726731 0 0 0 255 
-2.377 0.119187 -0.0227363 -0.149081 0.984953 -0.0874234 0 0 0 255 
-2.19187 0.109834 0.224022 -0.167523 0.985774 0.0135958 0 0 0 255 
-2.18739 0.122328 0.0616851 -0.202739 0.953962 0.221028 0 0 0 255 
-2.16808 0.0425402 -0.0784376 0.288306 0.646942 0.705936 0 0 0 255 
-1.54066 0.152641 1.29549 -0.562285 0.582837 0.586632 0 0 0 255 
-1.76059 0.237276 1.48048 -0.178775 -0.532614 0.827262 0 0 0 255 
-2.10898 0.171258 1.05514 0.0959256 0.880667 -0.463922 0 0 0 255 
-2.0563 0.176629 1.06888 0.259892 -0.319471 0.91126 0 0 0 255 
-2.1379 0.370826 0.992529 0.494504 0.701958 0.512562 0 0 0 255 
-2.44357 0.682601 0.834171 0.830717 0.535212 -0.153157 0 0 0 255 
-2.02937 0.356654 1.14048 0.589226 0.510655 -0.626135 0 0 0 255 
-1.97953 0.323081 1.04302 -0.182335 0.966837 -0.178832 0 0 0 255 
-2.01061 0.216478 0.949643 -0.440758 0.580579 -0.684588 0 0 0 255 
-1.86448 0.327186 0.931821 0.809033 0.285158 -0.513955 0 0 0 255 
-2.07964 0.322659 0.97655 0.357684 0.876975 0.3209 0 0 0 255 
-1.93587 0.36781 0.866269 0.0890389 0.713446 0.695031 0 0 0 255 
-2.71149 0.460186 0.37017 0.626724 0.774752 -0.083523 0 0 0 255 
-2.13018 -0.0110103 0.0227872 -0.193989 0.893929 0.404054 0 0 0 255 
-2.08074 -0.014763 0.0175385 -0.507307 0.857028 -0.0902339 0 0 0 255 
-2.20962 0.176897 1.01785 -0.545397 -0.298311 0.783296 0 0 0 255 
-2.08717 0.406865 0.816645 0.132667 0.916559 0.377253 0 0 0 255 
-1.8933 0.184317 0.891012 -0.326734 -0.408495 0.852278 0 0 0 255 
-2.16537 0.136992 0.00529337 0.138436 0.966584 0.215758 0 0 0 255 
-1.9898 0.0260679 0.0807076 0.413978 0.906199 0.0861766 0 0 0 255 
-2.57371 0.413003 0.41183 0.821886 0.448931 -0.350664 0 0 0 255 
-2.26972 -0.305084 -0.083225 -0.0627644 0.444567 0.893544 0 0 0 255 
-1.8128 0.25519 1.40587 0.803434 0.526641 -0.277748 0 0 0 255 
-2.43121 0.919779 1.01553 0.966628 0.250077 0.0556067 0 0 0 255 
-1.98518 0.393087 1.29867 -0.417931 -0.528415 0.738993 0 0 0 255 
-2.49253 0.777637 0.848092 0.753157 0.517533 -0.406096 0 0 0 255 
-2.51738 0.844932 0.808966 0.753157 0.517533 -0.406096 0 0 0 255 
-2.46869 0.104533 0.852983 0.19279 0.401287 0.895433 0 0 0 255 
-2.43319 0.68361 0.903561 0.892655 0.382345 -0.238701 0 0 0 255 
-2.14253 0.132125 -0.155709 0.200432 0.644854 0.737557 0 0 0 255 
-2.504 -0.200778 1.00961 -0.453013 0.486993 0.746738 0 0 0 255 
-2.05546 0.0466533 1.15889 0.040632 0.895923 0.442346 0 0 0 255 
-2.12698 0.412228 1.03212 -0.512947 0.133323 0.848004 0 0 0 255 
-2.04423 0.343567 1.08444 -0.142991 0.869592 -0.472613 0 0 0 255 
-2.01073 0.301991 1.08711 0.279878 0.85215 0.442163 0 0 0 255 
-1.89588 0.125139 0.946635 0.557719 -0.599816 -0.573734 0 0 0 255 
-1.87695 0.134541 0.919481 -0.288225 0.685727 0.66836 0 0 0 255 
-2.06275 0.192078 0.763768 -0.593592 0.391482 0.703129 0 0 0 255 
-1.88273 0.166098 0.892668 -0.246317 0.705584 0.664439 0 0 0 255 
-2.13779 0.522633 1.18741 0.802249 0.574236 -0.16325 0 0 0 255 
-2.54186 0.397983 0.522421 0.669237 0.718634 0.188909 0 0 0 255 
-2.12135 0.439301 0.732024 0.132667 0.916559 0.377253 0 0 0 255 
-2.00546 0.100248 0.262864 0.257587 0.956425 0.137479 0 0 0 255 
-2.78853 0.524389 0.323862 0.626724 0.774752 -0.0835231 0 0 0 255 
-1.89477 0.334831 0.965356 0.553076 0.800567 0.230649 0 0 0 255 
-2.40063 -0.142248 0.993791 -0.453013 0.486993 0.746738 0 0 0 255 
-1.98965 0.374929 1.28516 -0.417931 -0.528416 0.738993 0 0 0 255 
-2.03777 0.303925 1.05915 -0.0935876 0.903643 -0.417936 0 0 0 255 
-2.04632 0.133889 0.213448 0.132988 0.988253 0.0753044 0 0 0 255 
-2.21682 0.11177 0.292054 -0.308896 0.599333 0.7385 0 0 0 255 
-2.89884 0.0581495 0.825398 0.660149 -0.243928 -0.710424 0 0 0 255 
-2.67105 0.48762 0.324769 0.626724 0.774752 -0.083523 0 0 0 255 
-2.66693 0.422447 0.314771 0.667257 0.737143 -0.106718 0 0 0 255 
-2.57599 0.329912 0.407161 0.939794 -0.00834805 -0.34164 0 0 0 255 
-2.05332 0.162364 0.793363 -0.626769 0.382387 0.678927 0 0 0 255 
-2.75725 0.508107 0.399692 0.626724 0.774752 -0.0835229 0 0 0 255 
-2.08405 0.157634 1.02928 0.176979 -0.220708 0.959149 0 0 0 255 
-2.09216 0.163321 1.05059 0.0594953 -0.73723 0.673017 0 0 0 255 
-2.58511 0.339277 0.703284 0.384615 0.887282 0.254561 0 0 0 255 
-2.4176 0.241846 0.847699 0.934661 0.0774778 -0.346996 0 0 0 255 
-2.6498 0.150345 0.736753 -0.356291 0.156276 0.921214 0 0 0 255 
-2.6011 -0.197527 0.920874 -0.437655 0.543695 0.716138 0 0 0 255 
-2.32415 0.00326508 0.980444 0.597817 -0.385913 -0.702628 0 0 0 255 
-3.24673 0.798209 1.24645 0.491684 0.85873 -0.144323 0 0 0 255 
-2.48732 -0.18056 1.03167 -0.453013 0.486993 0.746738 0 0 0 255 
-3.36749 -0.680377 1.17784 -0.519639 -0.0592058 0.852332 0 0 0 255 
-1.90303 -0.124196 1.44171 0.66411 -0.28898 -0.689527 0 0 0 255 
-2.40703 -0.198352 1.05335 -0.453013 0.486993 0.746738 0 0 0 255 
-1.98388 -0.126117 1.38737 -0.18965 0.776573 0.600805 0 0 0 255 
-2.34647 0.0196623 0.941979 -0.562412 0.305219 0.768462 0 0 0 255 
-3.16271 -0.434892 1.30809 -0.551523 -0.0137593 0.834046 0 0 0 255 
-3.30662 -0.673517 1.22158 -0.519639 -0.059206 0.852332 0 0 0 255 
-3.27955 -0.715294 1.21516 -0.519639 -0.0592058 0.852332 0 0 0 255 
-3.21957 -0.56611 1.29379 -0.551523 -0.0137591 0.834046 0 0 0 255 
-3.30072 -0.683142 1.22249 -0.519639 -0.059206 0.852332 0 0 0 255 
-2.97275 0.731412 1.31573 -0.210856 0.858936 0.466657 0 0 0 255 
-3.35061 -0.663341 1.17783 -0.519639 -0.0592058 0.852332 0 0 0 255 
-3.10719 0.730802 1.24524 0.202243 0.973668 -0.105211 0 0 0 255 
-2.8768 -0.694854 1.51056 -0.403326 0.401037 0.822495 0 0 0 255 
-2.88502 -0.686191 1.49242 -0.403326 0.401037 0.822495 0 0 0 255 
-3.14283 0.771874 1.33429 0.150791 0.938872 0.309487 0 0 0 255 
-3.19145 -0.557095 1.29531 -0.551523 -0.0137591 0.834046 0 0 0 255 
-3.17492 -0.443877 1.29953 -0.551523 -0.0137593 0.834046 0 0 0 255 
-3.44855 0.856113 1.14764 -0.69358 0.188765 0.695208 0 0 0 255 
-3.30708 0.86522 1.22751 0.0396828 0.988422 0.146446 0 0 0 255 
-1.86451 -0.110965 1.4613 0.664111 -0.28898 -0.689527 0 0 0 255 
-3.31503 0.543984 0.997993 -0.0890902 -0.661539 0.7446 0 0 0 255 
-2.0107 -0.0909603 1.81878 0.719573 0.518523 -0.461896 0 0 0 255 
-1.94684 -0.0634141 1.82594 -0.60103 0.199425 0.773946 0 0 0 255 
-1.99868 -0.0470781 1.83485 0.254045 -0.0579788 0.965453 0 0 0 255 
-2.01048 -0.100053 1.8098 0.775869 0.443302 -0.448898 0 0 0 255 
-2.02377 -0.068179 1.80786 0.624342 -0.0124401 0.781052 0 0 0 255 
-1.98039 -0.0497947 1.80903 0.0632122 0.933348 -0.353364 0 0 0 255 
-2.02202 0.200782 1.81978 0.437525 0.712899 -0.548039 0 0 0 255 
-2.95284 0.817657 1.27725 -0.14175 0.871723 0.469047 0 0 0 255 
-3.28826 0.862368 1.08159 -0.0412647 0.792204 -0.60886 0 0 0 255 
-3.37898 0.767592 1.17129 -0.69358 0.188764 0.695209 0 0 0 255 
-3.35422 -0.723253 1.19731 -0.519639 -0.0592058 0.852332 0 0 0 255 
-2.70448 0.838207 1.22721 0.0636175 0.891611 0.448311 0 0 0 255 
-2.03621 -0.326561 1.81918 0.0303854 -0.361502 0.931876 0 0 0 255 
-1.98033 0.170626 1.8702 -0.123785 0.0782668 0.989218 0 0 0 255 
-2.0187 -0.0685579 1.81641 -0.387007 0.32546 0.862729 0 0 0 255 
-2.00339 -0.090923 1.82601 0.570913 0.497035 -0.653464 0 0 0 255 
-2.45434 0.167661 1.78642 -0.0290479 0.272415 0.961741 0 0 0 255 
-2.76014 -0.696316 1.59695 -0.403326 0.401037 0.822495 0 0 0 255 
-3.21578 -0.584912 1.26224 -0.551523 -0.0137591 0.834046 0 0 0 255 
-2.99136 0.774729 1.25759 -0.398324 0.819139 0.412734 0 0 0 255 
-3.37797 -0.794034 1.16758 0.782417 -0.613229 -0.108505 0 0 0 255 
-2.83587 0.778313 1.30214 -0.131496 0.88504 0.446558 0 0 0 255 
-3.38103 0.813791 1.1372 -0.69358 0.188764 0.695209 0 0 0 255 
-2.96554 0.827013 1.21066 0.35866 0.785108 0.504944 0 0 0 255 
-2.01503 -0.043271 1.89558 -0.101117 0.63074 0.769378 0 0 0 255 
-1.96496 -0.0488888 1.91597 -0.0185327 0.194517 0.980724 0 0 0 255 
-2.0466 0.246551 1.82539 0.973985 -0.218609 -0.0596868 0 0 0 255 
-2.00864 -0.00975001 1.82525 -0.495068 -0.0531144 0.867229 0 0 0 255 
-1.9699 -0.275196 1.87325 0.803286 -0.595501 -0.0104669 0 0 0 255 
-1.99838 -0.0184709 1.90162 0.203909 0.722309 -0.660826 0 0 0 255 
-2.01363 -0.326003 1.82222 0.0303854 -0.361501 0.931876 0 0 0 255 
-1.97341 -0.0927689 1.85721 0.434318 0.9007 -0.0103446 0 0 0 255 
-2.6407 0.803766 1.2634 0.356601 0.879821 0.314246 0 0 0 255 
-2.68372 0.849658 1.18844 0.379734 0.902652 0.202535 0 0 0 255 
-3.17288 0.794556 1.23088 0.491684 0.85873 -0.144323 0 0 0 255 
-2.00156 -0.182733 1.95502 0.148756 0.9792 -0.137979 0 0 0 255 
-1.93932 -0.0377607 1.92755 0.279502 0.957541 0.0706748 0 0 0 255 
-1.95083 -0.00759381 1.93514 0.182125 0.538298 0.82284 0 0 0 255 
-1.93261 -0.0319591 1.94126 0.192381 0.686553 0.701166 0 0 0 255 
-1.96751 -0.243177 1.90194 0.681231 0.550725 -0.482314 0 0 0 255 
-1.96026 -0.228595 1.91854 0.178389 0.893118 -0.412939 0 0 0 255 
-1.91836 -0.0535698 1.91083 0.704493 0.329095 -0.628797 0 0 0 255 
-2.0067 -0.227156 1.92334 0.105139 -0.759394 0.642079 0 0 0 255 
-1.92435 -0.066867 1.90645 -0.364118 -0.0769261 0.928171 0 0 0 255 
-1.99828 -0.030466 1.89513 -0.438542 0.872217 0.216607 0 0 0 255 
-1.97646 -0.0625601 1.93977 -0.396836 -0.0534658 0.916331 0 0 0 255 
-1.9829 -0.024045 1.92062 0.462699 0.523892 -0.715155 0 0 0 255 
-1.99949 0.257724 1.84636 0.364603 0.0496311 0.929839 0 0 0 255 
-2.04081 0.232502 1.88511 0.499299 0.852495 0.15477 0 0 0 255 
-2.04263 0.219505 1.82148 -0.432654 -0.268375 0.860689 0 0 0 255 
-2.04523 0.0249162 1.82254 0.785594 0.618739 0.00197292 0 0 0 255 
-2.04769 -0.361724 1.84641 0.707137 -0.654162 0.268383 0 0 0 255 
-1.97657 -0.268871 1.87513 0.803286 -0.595501 -0.0104669 0 0 0 255 
-3.30499 0.867855 1.22977 0.0396828 0.988422 0.146446 0 0 0 255 
-2.94427 0.888483 1.12965 0.487339 0.777902 0.396697 0 0 0 255 
-2.68018 0.834671 1.19861 0.379734 0.902652 0.202535 0 0 0 255 
-1.94058 -0.06349 1.9488 -0.654818 -0.00610581 0.755762 0 0 0 255 
-1.93352 -0.226927 1.96348 -0.267275 -0.695995 0.666449 0 0 0 255 
-1.92861 -0.256533 1.92854 -0.352816 -0.0105184 0.935634 0 0 0 255 
-1.92441 -0.0214457 1.97559 -0.29619 0.496012 0.816237 0 0 0 255 
-1.92707 -0.246223 1.92219 -0.352816 -0.0105184 0.935634 0 0 0 255 
-1.9461 -0.259682 1.91981 0.453997 0.716238 -0.52999 0 0 0 255 
-1.93635 -0.249856 1.91293 0.765672 0.130819 -0.629788 0 0 0 255 
-1.96036 -0.0739366 1.93154 -0.646429 0.69479 0.315272 0 0 0 255 
-1.99972 -0.208386 1.92087 0.193615 -0.602426 0.774336 0 0 0 255 
-1.91866 -0.0132017 1.94692 -0.691152 0.722436 -0.0198671 0 0 0 255 
-1.9595 -0.0311861 1.91932 -0.0947265 -0.671386 0.735029 0 0 0 255 
-2.01288 -0.0297639 1.88348 -0.110836 0.488511 0.86549 0 0 0 255 
-2.00289 -0.0942279 1.87984 -0.613729 0.677096 -0.40605 0 0 0 255 
-2.01238 -0.0579378 1.81882 0.436809 -0.466717 0.769008 0 0 0 255 
-2.02053 -0.318904 1.82958 0.0303853 -0.361501 0.931876 0 0 0 255 
-1.82396 -0.316779 1.96721 0.42105 0.882597 0.20914 0 0 0 255 
-1.88455 -0.05571 1.97517 0.0468377 -0.0406226 0.998076 0 0 0 255 
-1.88929 0.098195 1.98822 -0.56239 -0.258181 0.785531 0 0 0 255 
-1.83848 -0.304799 1.92998 0.520646 0.721921 -0.455805 0 0 0 255 
-1.90421 -0.203683 1.98036 0.493763 0.866516 -0.0731352 0 0 0 255 
-2.14979 -0.355599 2.02601 0.331439 0.810019 -0.483753 0 0 0 255 
-1.91203 0.100629 1.97304 -0.275762 0.0105633 0.961168 0 0 0 255 
-1.90575 -0.050296 1.93704 0.961165 0.250935 0.114861 0 0 0 255 
-1.92671 -0.0580876 1.98084 -0.635305 -0.190335 0.748438 0 0 0 255 
-1.95481 -0.0260749 1.93557 -0.358698 0.422439 0.832395 0 0 0 255 
-2.00304 0.340209 1.84893 -0.539588 -0.143031 0.829691 0 0 0 255 
-2.03113 0.277033 1.81976 0.471695 0.0628148 0.879521 0 0 0 255 
-1.87762 -0.258188 1.90847 -0.190855 -0.0589021 0.97985 0 0 0 255 
-1.84569 -0.333195 1.92774 -0.59645 0.0682338 0.799744 0 0 0 255 
-1.82943 -0.318593 1.92544 -0.602915 0.250494 0.75746 0 0 0 255 
-1.84361 -0.32818 1.92855 -0.373003 0.235213 0.897521 0 0 0 255 
-1.84783 -0.305699 1.92249 0.131425 0.938114 -0.320422 0 0 0 255 
-1.91211 -0.321313 1.9154 0.257158 0.952605 -0.162521 0 0 0 255 
-1.85908 -0.312176 1.92158 -0.474892 0.180078 0.861423 0 0 0 255 
-1.85064 -0.339563 1.9085 -0.401943 -0.0753241 0.912561 0 0 0 255 
-2.74264 0.76886 1.36211 -0.056702 0.636172 0.769461 0 0 0 255 
-2.92484 0.804134 1.18866 0.105149 0.917191 0.384324 0 0 0 255 
-2.48968 0.777351 1.24106 0.0974353 0.967233 0.23445 0 0 0 255 
-3.27939 0.655698 0.994695 -0.0890903 -0.661539 0.7446 0 0 0 255 
-2.58065 0.786604 1.13334 0.370796 0.907912 0.195462 0 0 0 255 
-2.79011 0.782966 1.04045 0.0634508 0.978761 -0.19494 0 0 0 255 
-1.8011 0.100614 2.02942 -0.0155308 -0.52995 0.847887 0 0 0 255 
-1.80777 0.143383 2.0251 0.58775 0.752739 0.296535 0 0 0 255 
-1.82583 0.0811147 2.01884 -0.332418 -0.556105 0.761738 0 0 0 255 
-1.84388 0.112547 2.01935 0.616593 0.420932 -0.665304 0 0 0 255 
-1.90573 0.153193 1.97832 -0.0115266 0.195881 0.98056 0 0 0 255 
-1.93348 -0.0655676 1.91669 0.192681 -0.245074 0.950164 0 0 0 255 
-1.82531 -0.247578 1.98812 0.0208048 0.933059 -0.359121 0 0 0 255 
-1.78263 -0.32325 1.95993 0.212841 0.887596 -0.408499 0 0 0 255 
-1.83559 -0.245357 1.98327 0.0705014 0.971215 -0.227531 0 0 0 255 
-1.77318 -0.336395 1.93781 0.25826 0.814019 -0.520264 0 0 0 255 
-1.84346 -0.255062 1.95947 -0.151508 0.966667 -0.206396 0 0 0 255 
-1.88511 -0.234505 1.94844 0.472006 0.657561 -0.587218 0 0 0 255 
-1.85103 -0.250885 1.96612 -0.151508 0.966667 -0.206396 0 0 0 255 
-1.82713 -0.308666 1.91919 0.520646 0.721921 -0.455805 0 0 0 255 
-1.87683 -0.087617 1.97311 -0.41083 -0.207391 0.887811 0 0 0 255 
-1.8268 -0.344199 1.93871 -0.323613 -0.141342 0.935573 0 0 0 255 
-1.83138 -0.314127 1.93725 -0.537556 0.149467 0.829875 0 0 0 255 
-1.90735 -0.0748761 1.9393 0.992472 0.00125394 -0.122463 0 0 0 255 
-1.91519 -0.0728433 1.9295 0.909691 -0.286356 -0.300769 0 0 0 255 
-1.8603 -0.330214 1.92267 -0.502999 0.756419 -0.418117 0 0 0 255 
-1.93167 -0.0460679 1.9563 0.963682 -0.0687245 -0.258058 0 0 0 255 
-1.95273 -0.228142 1.89989 0.240363 0.842858 -0.481473 0 0 0 255 
-1.94162 -0.110638 1.89991 0.0600267 0.88014 -0.470904 0 0 0 255 
-2.00033 0.164056 1.85209 0.173178 0.684509 0.708136 0 0 0 255 
-1.94787 -0.240002 1.91349 -0.49257 -0.212152 0.844018 0 0 0 255 
-1.99091 -0.05098 1.81747 0.0600336 0.844652 -0.53194 0 0 0 255 
-2.91381 0.732819 1.4392 -0.132204 0.878741 0.458624 0 0 0 255 
-3.39796 0.748042 1.11037 -0.024202 0.739374 -0.67286 0 0 0 255 
-3.17789 0.774193 1.11045 0.553804 0.687737 -0.469381 0 0 0 255 
-2.28171 0.79568 1.26067 0.0132749 0.965665 0.259451 0 0 0 255 
-2.78795 0.812289 1.02387 0.0634508 0.978761 -0.19494 0 0 0 255 
-1.81318 -0.245349 1.9896 0.305224 0.75377 -0.581953 0 0 0 255 
-1.80735 -0.30624 1.95035 0.310926 0.944414 -0.106805 0 0 0 255 
-1.80724 -0.330837 1.94619 -0.299408 -0.557905 0.774014 0 0 0 255 
-1.79891 -0.323046 1.94546 0.329974 0.723919 -0.605853 0 0 0 255 
-1.85431 -0.243128 1.95781 -0.151508 0.966667 -0.206396 0 0 0 255 
-1.88038 -0.0371685 1.97056 -0.203892 -0.00907142 0.978951 0 0 0 255 
-1.8959 -0.0155878 1.9689 -0.0978218 0.356543 0.929144 0 0 0 255 
-1.76109 -0.339671 1.98844 0.440575 0.83991 0.31693 0 0 0 255 
-1.77505 -0.330404 1.98306 0.457323 0.878096 0.140723 0 0 0 255 
-1.79438 -0.281563 1.98455 0.610495 0.242563 -0.753962 0 0 0 255 
-1.8201 -0.150872 2.01815 0.471627 0.658041 -0.586984 0 0 0 255 
-1.76321 -0.336004 1.97528 -0.461753 0.570901 0.678864 0 0 0 255 
-1.81839 -0.244081 1.99932 0.0268854 0.91782 -0.396085 0 0 0 255 
-1.8525 -0.137412 2.00682 0.281624 0.827541 -0.485658 0 0 0 255 
-1.7894 0.0821572 2.0271 0.0960214 -0.566976 0.818119 0 0 0 255 
-1.77031 -0.321953 1.9737 -0.646474 0.108036 0.755248 0 0 0 255 
-1.77872 -0.327734 1.97257 -0.646474 0.108036 0.755248 0 0 0 255 
-1.8334 0.155848 2.03437 0.540651 0.820706 0.184766 0 0 0 255 
-1.78121 -0.330545 1.96828 -0.646474 0.108036 0.755248 0 0 0 255 
-1.76936 -0.31056 1.96921 0.304624 0.589235 -0.748336 0 0 0 255 
-1.81357 0.0731853 2.01267 0.00143489 0.929042 -0.369971 0 0 0 255 
-1.90313 -0.215992 1.95951 0.873867 0.158598 0.459569 0 0 0 255 
-1.85531 -0.0497308 1.97498 -0.360209 -0.123239 0.924696 0 0 0 255 
-1.80908 -0.304933 1.96101 0.338488 0.818921 -0.463458 0 0 0 255 
-1.85224 -0.163157 1.98857 0.201439 0.973096 0.111837 0 0 0 255 
-1.85161 -0.245213 1.97817 -0.146085 0.974919 0.167904 0 0 0 255 
-1.85866 -0.254817 1.97499 -0.251254 0.896094 0.365906 0 0 0 255 
-1.95075 0.170179 1.99158 -0.0460495 0.831434 0.553711 0 0 0 255 
-1.90118 -0.232671 1.93683 0.690191 0.322324 -0.647877 0 0 0 255 
-1.91448 -0.0700761 1.95351 -0.581681 0.802515 -0.132727 0 0 0 255 
-1.94496 -0.231453 1.9328 0.53477 0.678241 -0.503995 0 0 0 255 
-1.91471 -0.234381 1.91642 -0.352816 -0.0105184 0.935634 0 0 0 255 
-1.92789 -0.0257685 1.92173 0.706645 0.704572 -0.0650483 0 0 0 255 
-1.84603 -0.255495 1.9409 -0.151508 0.966667 -0.206396 0 0 0 255 
-2.00763 0.16141 1.85765 0.79269 0.593559 0.139036 0 0 0 255 
-1.98882 0.344918 1.8563 -0.0836914 0.310997 0.946719 0 0 0 255 
-2.02972 -0.0340044 1.80789 -0.696052 -0.099197 0.711106 0 0 0 255 
-1.99747 -0.096709 1.83596 0.554199 0.66492 -0.500745 0 0 0 255 
-1.94369 0.105093 1.86393 0.394964 0.521368 0.756425 0 0 0 255 
-1.94064 -0.150062 1.82552 -0.0547873 0.207086 0.976788 0 0 0 255 
-2.51965 0.741987 1.32212 0.172375 0.909413 0.37849 0 0 0 255 
-2.9705 0.777996 1.30231 -0.14175 0.871723 0.469047 0 0 0 255 
-2.65093 0.792861 1.24918 0.379734 0.902652 0.202535 0 0 0 255 
-2.52887 0.732929 1.26873 0.172375 0.909413 0.37849 0 0 0 255 
-2.44953 0.777116 1.26954 -0.00498242 0.915306 0.402729 0 0 0 255 
-2.29495 0.772691 1.29464 0.0132749 0.965665 0.259451 0 0 0 255 
-2.41477 0.8076 1.18429 -0.0679129 0.943914 0.323133 0 0 0 255 
-1.987 0.196384 1.8129 -0.408637 -0.546705 0.730841 0 0 0 255 
-1.82592 0.138153 2.03472 0.58775 0.752739 0.296536 0 0 0 255 
-1.98601 0.262614 2.00355 0.184496 -0.355653 0.916227 0 0 0 255 
-1.87819 0.0991692 1.99371 -0.106486 -0.00890379 0.994274 0 0 0 255 
-1.78098 -0.24675 2.02656 0.738709 -0.124729 -0.662383 0 0 0 255 
-1.78592 -0.24577 2.01849 0.522096 0.718964 -0.458809 0 0 0 255 
-1.76848 -0.284741 1.99814 0.734976 0.0384614 0.677002 0 0 0 255 
-1.79516 -0.241338 2.01184 0.459983 0.837512 -0.294938 0 0 0 255 
-1.81149 -0.168509 2.01506 -0.5044 0.222893 0.834206 0 0 0 255 
-1.79638 -0.258821 2.00451 0.673642 0.454513 -0.582773 0 0 0 255 
-1.79451 -0.23903 2.00264 0.453143 0.786112 -0.420344 0 0 0 255 
-1.81226 0.12416 2.04777 -0.330989 -0.333664 0.882675 0 0 0 255 
-1.82158 -0.241411 2.00594 0.0933888 0.907517 -0.409501 0 0 0 255 
-1.81179 -0.169519 2.00419 -0.435645 -0.366997 0.821905 0 0 0 255 
-1.80553 -0.24558 1.98364 0.305224 0.75377 -0.581953 0 0 0 255 
-1.92176 -0.0896594 1.93974 0.142096 0.987234 -0.0719625 0 0 0 255 
-1.83116 -0.309408 1.92888 0.520646 0.721921 -0.455805 0 0 0 255 
-1.84097 -0.309933 1.92171 0.131425 0.938114 -0.320422 0 0 0 255 
-1.75723 -0.320126 1.98225 0.916797 0.347633 0.196555 0 0 0 255 
-1.78607 -0.297115 1.98036 0.558372 0.131697 0.819071 0 0 0 255 
-2.03091 0.282587 1.80816 0.158365 0.04865 0.986181 0 0 0 255 
-2.0788 0.28293 1.81995 0.566473 0.284166 0.773536 0 0 0 255 
-1.76364 -0.342177 1.99506 0.457323 0.878096 0.140723 0 0 0 255 
-1.77542 -0.305739 1.97933 0.813229 0.249242 0.525868 0 0 0 255 
-1.82968 -0.320399 1.93358 0.836208 -0.405923 -0.368759 0 0 0 255 
-1.84961 -0.312453 1.91987 -0.250015 0.127418 0.959821 0 0 0 255 
-1.93646 -0.22831 1.9239 0.452339 0.883901 0.11878 0 0 0 255 
-1.96894 -0.236305 1.89915 0.418861 0.755875 -0.503199 0 0 0 255 
-1.94702 -0.248294 1.89101 0.681231 0.550725 -0.482314 0 0 0 255 
-1.97072 -0.0510552 1.87834 0.735237 0.332199 0.590821 0 0 0 255 
-2.02374 -0.0689507 1.82588 -0.64561 0.0265048 0.763207 0 0 0 255 
-1.99064 -0.0290742 1.835 0.268472 0.155569 0.950642 0 0 0 255 
-1.91534 -0.304012 1.88093 -0.368887 0.114464 0.922399 0 0 0 255 
-3.23156 0.807359 1.23771 0.491684 0.85873 -0.144323 0 0 0 255 
-2.87592 0.813129 1.14625 0.439131 0.868809 0.228767 0 0 0 255 
-1.68584 0.167904 2.06554 -0.18023 -0.374271 0.909636 0 0 0 255 
-1.86405 0.173776 2.00852 0.635062 0.44652 -0.63033 0 0 0 255 
-1.84159 0.157726 2.0313 0.50549 0.86283 0.00201131 0 0 0 255 
-2.10852 0.43058 1.7969 0.022102 0.103416 0.994393 0 0 0 255 
-1.90257 -0.259534 1.93849 0.735285 0.366668 -0.570009 0 0 0 255 
