ply
format ascii 1.0
comment VCGLIB generated
element vertex 730
property float x
property float y
property float z
property float nx
property float ny
property float nz
property uchar red
property uchar green
property uchar blue
property uchar alpha
element face 0
property list uchar int vertex_indices
end_header
-2.08495 0.0130548 -0.11931 0.747789 0.655183 -0.107456 0 0 0 1 
-2.09571 0.151317 -0.208926 -0.212413 0.712269 0.668994 0 0 0 1 
-2.01234 0.155684 -0.302172 0.826624 0.519354 -0.216711 0 0 0 1 
-1.80001 0.169984 -0.0280585 0.0227799 0.999121 0.0352018 0 0 0 1 
-1.50748 0.160423 0.341965 -0.0577164 0.992009 0.112191 0 0 0 1 
-2.04063 0.13568 -0.378439 0.789204 0.555404 -0.262074 0 0 0 1 
-1.89283 0.123675 -0.168368 0.493922 0.838116 -0.231524 0 0 0 1 
-2.01985 0.0251671 -0.300136 0.777046 -0.597575 -0.197749 0 0 0 1 
-1.98049 0.0798959 -0.276747 0.91829 -0.068883 0.389871 0 0 0 1 
-1.79563 0.185456 -0.0809329 0.145545 0.977772 -0.150923 0 0 0 1 
-1.51432 0.161351 0.30495 -0.0939178 0.993203 0.0687491 0 0 0 1 
-2.00024 0.0578189 -0.322909 0.734085 -0.632154 -0.247991 0 0 0 1 
-1.98756 0.100617 -0.354456 0.939627 0.216216 -0.265241 0 0 0 1 
-1.49092 0.157427 0.326941 -0.0548582 0.992514 0.109117 0 0 0 1 
-2.04545 -0.145578 -0.36227 0.813684 -0.121792 -0.568406 0 0 0 1 
-2.0022 0.0836274 -0.393067 0.984678 0.122366 -0.124242 0 0 0 1 
-2.09592 0.147215 0.0133202 0.248468 0.88492 -0.39393 0 0 0 1 
-1.72091 0.112358 0.0112363 0.683963 0.359031 -0.635053 0 0 0 1 
-1.70344 0.0469076 0.0233049 0.739752 0.386287 -0.550953 0 0 0 1 
-1.41664 0.138191 0.406597 -0.13524 0.938084 0.318918 0 0 0 1 
-1.97862 0.16627 -0.230662 0.190679 0.980561 0.0462812 0 0 0 1 
-2.04388 -0.159653 -0.395124 -0.43245 0.901512 -0.0162156 0 0 0 1 
-1.82272 0.0507706 -0.175703 0.467769 0.810941 -0.351521 0 0 0 1 
-1.70947 0.0967578 -0.0113513 0.739752 0.386287 -0.550953 0 0 0 1 
-2.01382 -0.132782 -0.390989 -0.43245 0.901512 -0.0162156 0 0 0 1 
-1.7044 0.0404253 -0.0199711 0.739752 0.386287 -0.550953 0 0 0 1 
-1.98945 -0.0957475 0.120071 0.771183 -0.0684832 -0.63292 0 0 0 1 
-1.42063 0.14319 0.360707 -0.13524 0.938084 0.318918 0 0 0 1 
-1.00523 0.152024 0.977312 0.526827 0.849656 0.0231805 0 0 0 1 
-2.13774 0.188336 0.738902 -0.242566 0.499709 0.831536 0 0 0 1 
-2.00598 -0.00669473 -0.00763953 0.717607 0.611521 -0.33329 0 0 0 1 
-2.04418 -0.19133 -0.0347059 0.900306 -0.0252289 -0.434526 0 0 0 1 
-1.74294 0.139006 0.675708 0.509681 0.852729 0.114359 0 0 0 1 
-1.99981 0.0505063 -0.37987 0.849751 -0.511396 -0.128055 0 0 0 1 
-2.45574 0.151006 0.0782707 -0.0181039 0.983381 -0.180647 0 0 0 1 
-1.08167 0.158216 1.15342 -0.173202 0.980638 -0.091385 0 0 0 1 
-1.09766 0.155362 1.18932 -0.191504 0.971897 -0.136903 0 0 0 1 
-1.19011 0.160161 1.27351 -0.147441 0.987348 -0.0583453 0 0 0 1 
-1.20168 0.162468 1.29567 0.156013 0.94192 0.2974 0 0 0 1 
-1.15618 0.16605 1.26212 0.0851337 0.986791 0.137828 0 0 0 1 
-1.14037 0.164455 1.24102 -0.101705 0.993355 -0.0538765 0 0 0 1 
-1.14746 0.163829 1.242 -0.101705 0.993355 -0.0538765 0 0 0 1 
-2.04573 0.0101275 -0.0544604 0.641832 -0.529167 -0.555008 0 0 0 1 
-1.86041 0.105904 -0.156167 0.460021 0.811593 -0.360137 0 0 0 1 
-1.55245 0.0457509 0.0985919 0.411857 0.10301 0.905408 0 0 0 1 
-1.76133 0.0150984 -0.260335 0.895218 -0.394836 0.206614 0 0 0 1 
-1.92767 0.00693554 0.153432 -0.419946 0.0338937 0.906916 0 0 0 1 
-1.78835 0.114176 -0.0706466 0.774793 0.428302 -0.46503 0 0 0 1 
-2.05248 0.0531248 -0.33785 0.706398 -0.647923 -0.284951 0 0 0 1 
-1.76094 0.0241665 -0.23934 0.70099 -0.66572 0.255792 0 0 0 1 
-1.77789 0.00499672 -0.261472 0.662207 0.746954 0.0595114 0 0 0 1 
-0.965195 0.147644 0.94819 0.542898 -0.139445 0.828141 0 0 0 1 
-1.30661 0.157998 0.41351 -0.359191 0.933104 0.0172735 0 0 0 1 
-1.42968 0.16331 0.221318 -0.0933294 0.993554 0.064339 0 0 0 1 
-1.2855 0.164105 0.335461 0.457747 0.880411 0.123873 0 0 0 1 
-1.41098 0.174258 0.211637 0.765241 0.264555 -0.58687 0 0 0 1 
-1.43925 0.161954 0.272263 -0.0892522 0.995972 0.00854351 0 0 0 1 
-1.38286 0.172847 0.248762 0.124207 0.983924 0.128319 0 0 0 1 
-1.43515 0.169508 0.222506 -0.300702 0.948125 0.103134 0 0 0 1 
-1.4093 0.15742 0.360518 -0.13524 0.938084 0.318917 0 0 0 1 
-1.4466 0.162304 0.182645 0.06967 0.980336 -0.184627 0 0 0 1 
-1.46427 0.159435 0.238504 0.0364758 0.999043 0.0241367 0 0 0 1 
-1.45216 0.15681 0.173213 0.198096 0.945988 -0.256642 0 0 0 1 
-0.980082 0.143976 0.966131 0.886568 -0.187604 0.422849 0 0 0 1 
-1.30866 0.174779 0.310849 0.146126 0.965192 -0.216914 0 0 0 1 
-1.06236 0.166121 1.0721 0.497024 0.848271 -0.182765 0 0 0 1 
-1.40909 0.169708 0.31864 -0.0640067 0.989114 0.132499 0 0 0 1 
-0.947823 0.137185 1.00674 0.338615 0.937396 -0.081411 0 0 0 1 
-1.39009 0.175682 0.267302 0.124207 0.983924 0.128319 0 0 0 1 
-0.971241 0.174777 0.931059 0.0393424 0.977281 0.208263 0 0 0 1 
-1.04327 0.157209 1.07889 0.103573 0.972647 -0.207922 0 0 0 1 
-1.05915 0.164249 1.07462 0.497024 0.848271 -0.182765 0 0 0 1 
-0.963557 0.148644 0.987899 -0.364452 0.930916 0.0238948 0 0 0 1 
-0.979091 0.14552 0.985685 0.341927 0.938054 -0.0560388 0 0 0 1 
-0.999336 0.16312 0.987553 0.453419 0.885456 0.101875 0 0 0 1 
-0.987518 0.160385 0.964508 0.34402 0.936615 0.0663494 0 0 0 1 
-0.959602 0.150425 0.980562 -0.417384 0.900778 0.119958 0 0 0 1 
-0.988229 0.143237 0.984406 0.498168 0.816783 -0.291023 0 0 0 1 
-1.29496 0.163171 0.477214 -0.280041 0.93264 0.227507 0 0 0 1 
-1.03109 0.156229 1.07695 -0.188151 0.898109 -0.397491 0 0 0 1 
-1.0063 0.159119 0.99584 0.506053 0.860761 0.0547778 0 0 0 1 
-1.42666 0.151524 0.411298 -0.13524 0.938084 0.318918 0 0 0 1 
-0.979612 0.154507 1.04537 0.727362 0.661654 -0.182097 0 0 0 1 
-1.00936 0.164405 1.0858 -0.23503 0.939228 -0.250222 0 0 0 1 
-0.995719 0.159388 0.954456 0.318893 0.941703 0.107248 0 0 0 1 
-0.949504 0.162207 0.982747 -0.211297 0.912126 0.351255 0 0 0 1 
-1.01536 0.168962 1.09173 -0.0113822 0.937648 -0.347399 0 0 0 1 
-0.973178 0.148455 0.99293 -0.347454 0.921229 0.174966 0 0 0 1 
-0.992823 0.152502 0.931171 -0.181591 0.88592 0.426815 0 0 0 1 
-0.987654 0.163706 0.911211 -0.00269024 0.999437 -0.033448 0 0 0 1 
-1.86476 0.0919513 -0.177039 0.331681 0.830277 -0.447915 0 0 0 1 
-2.04718 0.0515162 -0.20368 0.934683 -0.150241 0.322172 0 0 0 1 
-1.87708 0.182456 0.047509 -0.390886 0.920433 0.00328527 0 0 0 1 
-2.16117 0.161566 0.0602027 -0.113288 0.982153 0.150136 0 0 0 1 
-0.992468 0.171673 1.03282 0.667317 0.711843 -0.219015 0 0 0 1 
-1.01452 0.160306 1.07164 -0.0791245 0.858775 -0.506206 0 0 0 1 
-0.997263 0.147002 0.945476 -0.242361 0.603346 0.75976 0 0 0 1 
-1.2206 0.164325 0.476693 -0.040193 0.966583 0.253182 0 0 0 1 
-1.81989 0.150026 -0.661976 0.15333 0.988019 -0.0175311 0 0 0 1 
-0.968869 0.154627 0.95929 0.0841474 0.974034 0.210185 0 0 0 1 
-1.83899 -0.01718 -0.262794 -0.511266 0.837007 -0.195004 0 0 0 1 
-1.71119 0.154723 -0.574857 -0.102474 0.986211 -0.129952 0 0 0 1 
-1.40051 0.15788 0.0206989 -0.0868212 0.99617 -0.0103487 0 0 0 1 
-1.42335 -0.0563108 0.140729 -0.299057 0.264716 0.916783 0 0 0 1 
-1.40087 -0.0303163 0.129837 -0.265255 0.301348 0.915876 0 0 0 1 
-1.41008 0.136641 0.132254 0.247317 0.926492 -0.283632 0 0 0 1 
-1.53959 0.0285112 0.0739744 0.246644 0.373615 0.894192 0 0 0 1 
-1.77165 0.169078 -0.0409692 0.774793 0.428302 -0.46503 0 0 0 1 
-2.06033 0.129266 -0.248121 0.587819 0.103586 0.802333 0 0 0 1 
-2.11032 0.0380238 -0.222045 0.307261 0.921518 -0.237476 0 0 0 1 
-1.99295 0.0258952 -0.447299 0.944041 -0.324936 -0.0565979 0 0 0 1 
-1.54285 0.044145 0.112137 -0.251573 -0.0765909 0.964803 0 0 0 1 
-1.91261 -0.0696409 -0.357367 -0.30017 -0.140173 0.94353 0 0 0 1 
-1.85882 0.128495 -0.552876 0.0232456 0.997796 0.0621567 0 0 0 1 
-1.53744 0.11719 -0.187957 0.123473 0.991935 -0.0286354 0 0 0 1 
-1.08123 0.154866 1.07601 -0.144431 0.987089 -0.0692445 0 0 0 1 
-1.11127 0.168675 1.22285 -0.194365 0.969088 -0.151957 0 0 0 1 
-1.7626 0.153719 0.691288 0.514423 0.857239 -0.0225946 0 0 0 1 
-1.06182 0.154684 1.07106 0.097644 0.992476 0.0738762 0 0 0 1 
-1.05328 0.166418 1.08975 0.248923 0.958228 -0.140839 0 0 0 1 
-1.06795 0.166346 1.06038 0.097644 0.992476 0.0738762 0 0 0 1 
-1.04095 0.17763 1.04187 0.371353 0.68002 0.632194 0 0 0 1 
-1.88382 0.0142857 0.156469 -0.384254 0.367281 0.847026 0 0 0 1 
-1.5408 0.159581 -0.361452 -0.0149507 0.995224 0.0964639 0 0 0 1 
-1.8378 0.13769 -0.554246 0.0232456 0.997796 0.0621567 0 0 0 1 
-2.04738 -0.180272 -0.045692 0.78224 -0.395958 -0.480956 0 0 0 1 
-1.73865 0.0838685 -0.00258195 0.739752 0.386287 -0.550954 0 0 0 1 
-1.79371 0.145722 -0.613882 0.15333 0.988019 -0.0175311 0 0 0 1 
-1.40768 0.125487 0.0943384 0.362313 0.928998 0.0754428 0 0 0 1 
-2.0304 0.0600326 -0.438832 0.995944 -0.0437891 0.078605 0 0 0 1 
-0.932828 0.155728 0.851062 -0.167604 0.950029 -0.26335 0 0 0 1 
-0.963254 0.146633 0.88969 0.193989 0.980939 -0.0112313 0 0 0 1 
-0.960475 0.150945 0.889081 -0.000612914 0.99205 -0.125842 0 0 0 1 
-0.935725 0.15434 0.830751 0.144009 0.774993 -0.615343 0 0 0 1 
-0.970064 0.140647 0.964139 -0.636164 0.768946 -0.0633889 0 0 0 1 
-0.908036 0.156097 0.869554 0.22165 0.974143 -0.0437865 0 0 0 1 
-0.944701 0.159059 0.936905 -0.480061 0.833929 0.272222 0 0 0 1 
-0.911843 0.156527 0.826299 0.223538 0.972986 -0.0577001 0 0 0 1 
-1.43894 0.17044 0.234558 -0.112236 0.909417 0.400455 0 0 0 1 
-0.879538 0.14578 0.850199 0.16819 0.985456 -0.0242802 0 0 0 1 
-0.890414 0.152659 0.866445 0.22165 0.974143 -0.0437865 0 0 0 1 
-2.09607 0.150119 0.140635 0.00150954 0.996615 0.0822005 0 0 0 1 
-1.69718 0.131045 0.650101 0.484531 0.874772 0.00194971 0 0 0 1 
-1.41724 0.163939 0.358767 -0.13524 0.938084 0.318917 0 0 0 1 
-1.28789 0.218941 0.372185 -0.381619 0.92427 -0.00962543 0 0 0 1 
-0.857037 0.139871 0.895302 0.907928 0.306513 -0.28586 0 0 0 1 
-0.885135 0.135118 0.841608 0.400346 0.20436 0.893286 0 0 0 1 
-0.852142 0.151626 0.905713 0.903391 0.282812 -0.322339 0 0 0 1 
-1.59158 0.151144 -0.282539 0.131774 0.990841 -0.0294911 0 0 0 1 
-2.28931 0.14801 0.0739352 0.0552491 0.992459 0.109419 0 0 0 1 
-1.95354 0.0941752 -0.00931477 -0.533301 0.805546 0.258235 0 0 0 1 
-1.39399 0.138885 0.164486 0.247317 0.926492 -0.283632 0 0 0 1 
-1.09374 0.155107 0.510269 -0.0095725 0.986677 0.162408 0 0 0 1 
-2.24803 0.039996 -0.0501316 -0.106781 -0.390205 0.914515 0 0 0 1 
-2.08348 0.108062 -0.0348601 0.0942661 0.966838 -0.237355 0 0 0 1 
-1.98831 -0.296601 0.0431176 0.486555 -0.464545 -0.739907 0 0 0 1 
-0.891913 0.14871 0.842374 0.223538 0.972986 -0.0577 0 0 0 1 
-2.25648 0.121747 0.0595454 -0.0310015 0.93999 0.33979 0 0 0 1 
-1.88095 0.124164 -0.00779569 -0.679867 0.713687 0.168616 0 0 0 1 
-1.23472 0.173296 0.228014 0.409536 0.860963 0.301701 0 0 0 1 
-1.7994 0.142361 -0.0244845 -0.0855393 0.7097 0.699292 0 0 0 1 
-1.06203 0.188471 0.407367 -0.0788348 0.991764 -0.10094 0 0 0 1 
-1.11064 0.157357 0.522104 -0.0095725 0.986677 0.162408 0 0 0 1 
-0.846903 0.0241734 0.889266 0.582156 0.759897 0.289226 0 0 0 1 
-1.23298 0.181163 0.185423 0.188343 0.973227 -0.131745 0 0 0 1 
-0.848829 0.0314328 0.893808 0.615343 0.188013 0.765509 0 0 0 1 
-1.35811 0.136135 0.0320329 -0.0252979 0.980811 0.19331 0 0 0 1 
-2.29387 -0.0161109 -0.129922 0.741309 -0.039767 -0.669985 0 0 0 1 
-1.7417 0.151284 0.00410986 0.774793 0.428302 -0.46503 0 0 0 1 
-1.92419 -0.302661 -0.466675 0.289833 0.754985 -0.588213 0 0 0 1 
-1.96525 -0.151639 -0.307036 -0.360423 0.888445 0.284183 0 0 0 1 
-1.47596 0.141874 -0.388501 0.0684145 0.991531 0.110386 0 0 0 1 
-1.76286 -0.279586 -0.224306 -0.681279 -0.0610869 0.729471 0 0 0 1 
-1.61995 0.140002 -0.403011 -0.028176 0.912038 -0.409136 0 0 0 1 
-1.61345 0.168714 -0.267763 0.110078 0.993199 -0.0379195 0 0 0 1 
-2.04741 0.00784141 -0.378359 -0.241235 0.96279 0.121828 0 0 0 1 
-1.98235 0.0329969 0.0523309 0.994169 0.104678 0.0258831 0 0 0 1 
-1.97617 0.0301211 -0.325107 0.734085 -0.632155 -0.247991 0 0 0 1 
-1.00506 0.181627 1.02539 0.446442 0.888302 -0.107744 0 0 0 1 
-0.947212 0.138235 1.04832 -0.528933 0.812593 -0.244791 0 0 0 1 
-1.93085 -0.0120218 0.14655 -0.419946 0.0338937 0.906916 0 0 0 1 
-2.02341 -0.0236184 -0.0560662 0.839944 -0.194624 -0.506573 0 0 0 1 
-2.00936 0.0778005 -0.0689244 0.676666 -0.513019 -0.528143 0 0 0 1 
-2.05265 -0.136416 -0.0845383 0.782239 -0.395958 -0.480956 0 0 0 1 
-1.06299 0.15521 1.05457 0.197131 0.978081 0.0670611 0 0 0 1 
-0.938832 0.14317 1.02229 -0.421009 0.884566 0.200737 0 0 0 1 
-0.978471 0.148711 1.0595 0.438755 0.896694 -0.0585943 0 0 0 1 
-1.06114 0.173444 1.15221 -0.13679 0.986949 -0.0849665 0 0 0 1 
-1.02127 0.166082 1.11627 -0.0403118 0.887046 -0.459918 0 0 0 1 
-0.954516 0.118945 1.04371 -0.52815 0.733031 -0.428629 0 0 0 1 
-0.978531 0.139354 1.02104 0.600381 0.796275 -0.0740855 0 0 0 1 
-1.685 0.145424 0.524805 0.401904 0.908898 0.111255 0 0 0 1 
-0.973812 0.143872 1.00976 0.0637537 0.983051 0.171892 0 0 0 1 
-1.01147 0.174041 1.02125 0.446442 0.888302 -0.107744 0 0 0 1 
-1.53616 0.159026 -0.344404 -0.0149507 0.995224 0.0964639 0 0 0 1 
-2.01241 0.0333332 -0.268914 0.674585 -0.305554 0.67199 0 0 0 1 
-1.97039 0.102616 -0.0708023 -0.680499 0.568604 0.46218 0 0 0 1 
-0.970592 0.149257 0.946365 -0.163631 0.934632 0.315736 0 0 0 1 
-0.919598 0.138619 0.855243 -0.106478 0.596517 0.795506 0 0 0 1 
-1.28816 0.162015 0.385722 -0.381619 0.92427 -0.00962542 0 0 0 1 
-1.29418 0.152598 0.319498 0.457747 0.880411 0.123873 0 0 0 1 
-1.30058 0.156885 0.342396 -0.223809 0.951169 -0.212574 0 0 0 1 
-1.4398 0.214133 0.22718 -0.543048 0.596878 -0.590622 0 0 0 1 
-1.40509 0.129139 0.396836 -0.177467 0.934669 0.308058 0 0 0 1 
-1.48382 0.164407 0.240487 -0.628982 0.758161 -0.171967 0 0 0 1 
-0.902272 0.135183 0.852287 0.113307 0.443457 0.889105 0 0 0 1 
-0.857135 0.134966 0.93416 0.83897 -0.442111 -0.317281 0 0 0 1 
-2.26547 0.0879408 -0.0211785 0.958568 0.281529 -0.0434674 0 0 0 1 
-0.950921 0.154297 0.959663 -0.468917 0.883236 -0.00333177 0 0 0 1 
-0.873891 0.14196 0.893372 0.775308 0.473255 -0.418244 0 0 0 1 
-1.43148 0.141675 0.0367293 -0.0868213 0.99617 -0.0103487 0 0 0 1 
-1.48003 0.210444 -0.921269 0.740884 0.377757 -0.555329 0 0 0 1 
-1.90396 0.163257 -0.0708447 -0.572605 0.785759 0.233893 0 0 0 1 
-1.25527 0.188044 0.451788 -0.167977 0.97745 0.127964 0 0 0 1 
-0.980815 0.133267 0.961716 -0.487911 0.87265 0.0206227 0 0 0 1 
-1.38512 0.127235 -0.453856 0.134901 0.970771 0.198507 0 0 0 1 
-2.2598 0.123201 0.0708319 0.0517784 0.998043 0.035047 0 0 0 1 
-1.18958 0.159048 0.539217 -0.0429339 0.990907 0.127518 0 0 0 1 
-1.73285 0.137028 -0.400372 0.0491054 0.997826 -0.0439568 0 0 0 1 
-1.69005 0.164856 -0.330276 -0.0710409 0.975313 -0.209088 0 0 0 1 
-1.58203 0.170309 0.148325 -0.289433 0.776178 -0.560158 0 0 0 1 
-1.8935 0.189117 -0.573093 0.122918 0.985794 0.114466 0 0 0 1 
-1.45298 0.157046 0.140555 0.203128 0.940568 -0.272161 0 0 0 1 
-1.412 0.170062 -0.84757 0.740884 0.377757 -0.555329 0 0 0 1 
-1.9031 -0.144802 -0.286653 -0.539235 0.809574 0.231982 0 0 0 1 
-1.5486 0.177663 -0.138543 0.288353 0.957188 -0.0253775 0 0 0 1 
-1.65272 0.157638 -0.350214 -0.036178 0.983048 -0.179744 0 0 0 1 
-2.01572 -0.140134 -0.0993096 0.78224 -0.395958 -0.480956 0 0 0 1 
-0.846744 0.136953 0.938406 0.00177709 0.975498 0.22 0 0 0 1 
-0.80465 -0.27481 0.876359 -0.520098 0.0540399 0.852395 0 0 0 1 
-1.94422 0.13589 -0.0180393 -0.438426 0.810034 0.389396 0 0 0 1 
-1.77433 -0.205101 0.253195 -0.337574 0.232545 0.912122 0 0 0 1 
-1.74897 0.14301 -0.622792 0.0272656 0.989604 -0.141212 0 0 0 1 
-2.05185 -0.120432 -0.0432268 0.952955 0.0757646 0.293489 0 0 0 1 
-2.04227 -0.183846 -0.0456207 0.78224 -0.395958 -0.480956 0 0 0 1 
-2.12692 0.0473406 -0.129167 0.486407 0.546921 0.681385 0 0 0 1 
-2.03616 -0.152586 -0.0830827 0.78224 -0.395958 -0.480956 0 0 0 1 
-0.926055 0.143774 1.07527 -0.182059 0.979129 -0.0903322 0 0 0 1 
-0.941344 0.141057 1.06376 -0.182059 0.979129 -0.0903322 0 0 0 1 
-1.48748 0.141646 0.351114 -0.0933622 0.961743 0.257556 0 0 0 1 
-0.943221 0.137787 1.07223 -0.247147 0.966711 -0.0662382 0 0 0 1 
-0.936706 0.146692 1.0556 -0.17717 0.977763 -0.112205 0 0 0 1 
-0.94573 0.151248 0.993456 -0.416093 0.80437 0.424095 0 0 0 1 
-0.954624 0.13513 1.04719 -0.52815 0.733031 -0.42863 0 0 0 1 
-0.951493 0.137892 1.05746 -0.329713 0.933066 -0.143795 0 0 0 1 
-1.03997 0.14976 1.08776 0.32264 0.823377 -0.466855 0 0 0 1 
-0.960818 0.138653 1.06227 0.145087 0.974807 -0.169417 0 0 0 1 
-1.39271 0.143679 0.400372 -0.177467 0.934669 0.308058 0 0 0 1 
-1.00646 0.157565 1.00138 0.348648 0.885824 -0.306204 0 0 0 1 
-0.963382 0.138077 1.06968 0.145087 0.974807 -0.169417 0 0 0 1 
-0.964001 0.13048 1.05988 0.280995 0.863581 -0.418653 0 0 0 1 
-0.97869 0.14392 1.02306 0.614304 0.788894 -0.0166311 0 0 0 1 
-1.37852 0.143757 -0.408505 0.134901 0.970771 0.198507 0 0 0 1 
-1.40651 0.192934 -0.823498 0.733641 0.314844 -0.6022 0 0 0 1 
-2.06035 -0.164344 -0.383076 0.735562 0.079032 -0.672832 0 0 0 1 
-0.938439 -0.033398 0.176254 0.734453 -0.42606 -0.528253 0 0 0 1 
-1.4483 0.155389 0.203234 -0.21118 0.966759 -0.14415 0 0 0 1 
-0.913984 0.108649 0.86205 -0.0557617 -0.433567 0.899394 0 0 0 1 
-0.824409 0.131813 0.963293 0.0946581 0.967344 0.235128 0 0 0 1 
-0.843362 0.133494 0.957689 0.0593694 0.992079 0.110701 0 0 0 1 
-0.861131 0.115106 0.901952 0.897736 0.310094 -0.312909 0 0 0 1 
-1.47593 0.161224 0.24305 -0.148478 0.861272 0.485968 0 0 0 1 
-0.852448 0.129867 0.925907 0.777325 -0.530332 -0.338398 0 0 0 1 
-0.817811 0.123672 0.995566 -0.0352126 0.999071 0.0248285 0 0 0 1 
-0.832029 0.128973 0.966863 0.0946582 0.967344 0.235128 0 0 0 1 
-0.822817 0.133113 0.952319 0.0585681 0.974328 0.217382 0 0 0 1 
-1.27019 0.163213 0.49937 -0.280041 0.93264 0.227507 0 0 0 1 
-2.01544 -0.108425 -0.289737 -0.540617 -0.134021 0.830525 0 0 0 1 
-0.857347 0.138919 0.953881 0.0593694 0.992079 0.110701 0 0 0 1 
-0.954008 0.142926 1.0772 -0.247147 0.966711 -0.0662382 0 0 0 1 
-1.68678 0.144385 -0.309341 -0.0322214 0.983377 -0.178694 0 0 0 1 
-1.03918 0.15114 1.06502 0.0663381 0.996934 0.0415064 0 0 0 1 
-0.765123 0.029631 0.985864 0.851103 0.304266 -0.427839 0 0 0 1 
-2.12434 0.0793781 -0.11455 0.329966 0.770707 0.545099 0 0 0 1 
-0.846477 -0.122778 0.361048 -0.029895 0.999211 -0.0261455 0 0 0 1 
-1.90095 0.157966 -0.0543603 -0.635282 0.729567 0.253276 0 0 0 1 
-1.61441 0.140857 -0.373612 0.012581 0.997804 0.0650303 0 0 0 1 
-0.942351 0.136989 1.03576 -0.679649 0.727355 -0.0950384 0 0 0 1 
-1.79185 0.0737006 -0.303323 0.488174 -0.642936 -0.590185 0 0 0 1 
-1.0135 0.157234 1.02996 0.378299 0.922156 0.0807401 0 0 0 1 
-1.9071 0.110093 -0.209927 0.45802 0.812709 -0.360169 0 0 0 1 
-0.984896 0.126194 0.960095 -0.487911 0.87265 0.0206228 0 0 0 1 
-1.01673 0.139411 1.07632 -0.188151 0.898109 -0.397491 0 0 0 1 
-2.00448 -0.17765 0.000290871 0.890136 -0.082508 -0.448164 0 0 0 1 
-0.862253 0.0506337 0.909054 0.622285 0.393004 -0.676985 0 0 0 1 
-0.801507 0.128283 1.01146 0.198534 0.955198 -0.2195 0 0 0 1 
-0.785068 0.12195 1.01449 0.198534 0.955198 -0.2195 0 0 0 1 
-0.814045 0.131232 1.02981 0.198534 0.955198 -0.2195 0 0 0 1 
-0.773783 0.118272 1.01022 0.596842 0.734702 -0.322479 0 0 0 1 
-0.812539 0.129261 1.01058 0.206422 0.966876 -0.150138 0 0 0 1 
-0.802203 0.125815 1.01732 0.198534 0.955198 -0.2195 0 0 0 1 
-0.81853 0.124716 0.983158 -0.144771 0.975285 0.166912 0 0 0 1 
-0.831464 0.131638 0.974232 0.0946582 0.967344 0.235128 0 0 0 1 
-0.762737 -0.139473 0.35402 -0.448552 0.888946 0.0926084 0 0 0 1 
-1.09887 0.148781 -0.0253656 0.382664 0.886976 -0.25854 0 0 0 1 
-0.790118 -0.145782 0.405877 -0.307952 0.926149 0.217748 0 0 0 1 
-0.787978 -0.142104 0.342195 -0.538352 0.8427 -0.00580761 0 0 0 1 
-0.762472 -0.0658993 0.379341 0.628329 -0.282909 -0.724683 0 0 0 1 
-0.795549 -0.1494 0.415206 -0.174185 0.98462 -0.013514 0 0 0 1 
-0.755293 -0.140981 0.399736 0.842778 -0.293281 -0.451344 0 0 0 1 
-0.757808 -0.114707 0.416302 -0.0334496 0.539138 0.841553 0 0 0 1 
-0.927994 -0.277142 0.1775 0.672838 0.02734 -0.739284 0 0 0 1 
-0.771628 -0.068691 0.365537 0.994028 0.020898 -0.107102 0 0 0 1 
-1.51042 0.139709 -0.358398 -0.0149507 0.995224 0.0964639 0 0 0 1 
-0.768019 0.0271854 0.355957 0.176711 0.490341 -0.853428 0 0 0 1 
-0.758122 0.0395053 0.376792 0.721735 0.627462 -0.292214 0 0 0 1 
-0.774527 0.0100524 0.41875 0.880842 -0.356088 0.311959 0 0 0 1 
-0.78188 0.0571796 0.370752 0.972083 -0.13919 0.188894 0 0 0 1 
-0.761447 0.0976366 0.421917 0.923452 -0.282249 -0.259947 0 0 0 1 
-0.774894 -0.0419139 0.353645 0.938376 -0.100102 -0.330802 0 0 0 1 
-0.742551 0.0769765 0.54065 0.64884 0.723514 0.235657 0 0 0 1 
-0.771916 0.0263452 0.426072 0.677989 -0.238864 -0.69518 0 0 0 1 
-0.692267 0.0229305 0.376491 -0.643177 -0.210548 0.736202 0 0 0 1 
-0.724976 0.03064 0.340558 -0.215151 0.504774 0.83601 0 0 0 1 
-0.764092 0.0702154 0.426113 0.968284 -0.248431 0.0266175 0 0 0 1 
-0.743874 0.104026 0.405676 -0.296112 0.89228 -0.340815 0 0 0 1 
-0.76706 0.0581797 0.367438 0.972083 -0.13919 0.188894 0 0 0 1 
-0.748181 0.1325 0.401233 -0.238861 0.91607 -0.32212 0 0 0 1 
-0.731887 0.118942 0.381381 0.0557669 0.980443 0.188737 0 0 0 1 
-0.77722 0.0187525 0.278855 0.843101 -0.41593 -0.340857 0 0 0 1 
-0.710708 0.00606951 0.349772 -0.349213 0.579562 0.736314 0 0 0 1 
-1.99172 0.0268008 -0.309519 0.777046 -0.597575 -0.197749 0 0 0 1 
-2.16473 0.115726 -0.12607 0.237979 0.651327 0.720513 0 0 0 1 
-1.82278 0.153681 -0.478341 -0.0453538 0.994952 0.0895175 0 0 0 1 
-0.765324 0.012718 0.963712 0.643712 0.559478 -0.52213 0 0 0 1 
-0.746947 -0.122944 0.400175 0.941755 0.198001 0.271833 0 0 0 1 
-0.966649 0.13828 0.995403 0.20687 0.969438 -0.131887 0 0 0 1 
-0.684494 0.11748 0.384998 0.5667 0.815394 -0.118257 0 0 0 1 
-0.772012 -0.108378 0.372769 0.995446 0.0535688 -0.078855 0 0 0 1 
-0.758275 -0.127943 0.335862 -0.155736 0.880607 -0.447524 0 0 0 1 
-0.78063 -0.144175 0.445974 -0.49755 0.697631 -0.515514 0 0 0 1 
-0.954754 0.122134 0.983491 0.610416 0.560137 -0.560035 0 0 0 1 
-0.795833 -0.149542 0.344403 -0.538352 0.8427 -0.00580759 0 0 0 1 
-1.43642 -0.0592388 0.147191 -0.299057 0.264716 0.916783 0 0 0 1 
-0.751618 -0.123882 0.3564 -0.00267594 -0.690943 0.722904 0 0 0 1 
-0.749079 -0.0964877 0.376651 -0.585003 -0.169151 0.793196 0 0 0 1 
-0.758178 -0.04742 0.344124 0.938376 -0.100102 -0.330802 0 0 0 1 
-2.12212 -0.326146 -0.00516045 -0.211531 0.370182 0.904555 0 0 0 1 
-1.76266 0.14917 0.0128338 0.774793 0.428302 -0.46503 0 0 0 1 
-1.0383 -0.0628045 -0.034911 0.00318744 0.688475 0.725253 0 0 0 1 
-1.29031 0.100689 0.120646 -0.0971103 0.981788 -0.163284 0 0 0 1 
-1.77902 0.0300255 -0.282409 0.895218 -0.394836 0.206614 0 0 0 1 
-1.83114 0.0187137 -0.271726 0.662204 0.746957 0.0595078 0 0 0 1 
-1.56073 0.158756 -0.362545 -0.0149507 0.995224 0.0964639 0 0 0 1 
-2.14361 0.0919541 -0.162556 0.928562 0.342184 0.143817 0 0 0 1 
-1.9559 0.137851 -0.518839 0.0210926 0.6353 0.771977 0 0 0 1 
-2.14263 0.0927417 -0.192647 0.863951 0.0669967 0.499099 0 0 0 1 
-0.771804 0.121328 1.02709 0.273029 0.885088 0.376928 0 0 0 1 
-0.83632 0.12291 0.984205 0.0965707 0.985497 0.139533 0 0 0 1 
-1.02663 0.152015 0.276976 0.4315 0.729132 -0.5312 0 0 0 1 
-1.64249 0.123134 -0.385047 -0.0799275 0.962977 -0.257463 0 0 0 1 
-1.52992 0.133683 -0.0794823 -0.437094 0.83286 0.339548 0 0 0 1 
-1.56668 0.130581 -0.238196 0.569632 0.821866 0.00747735 0 0 0 1 
-1.38213 0.113389 0.0997754 0.309902 0.947216 0.0821142 0 0 0 1 
-1.35689 0.207035 -0.131468 0.0433934 0.995852 -0.0799795 0 0 0 1 
-1.85319 0.135097 -0.506525 0.0232456 0.997796 0.0621567 0 0 0 1 
-1.34152 0.118878 0.0633248 0.239002 0.956223 0.168866 0 0 0 1 
-1.89479 -0.111953 -0.363162 -0.539235 0.809574 0.231982 0 0 0 1 
-1.99574 -0.172552 -0.282442 -0.360423 0.888445 0.284183 0 0 0 1 
-1.33763 0.151246 -0.0366602 -0.103503 0.926187 0.362581 0 0 0 1 
-1.80388 0.0339345 -0.203834 0.0155489 -0.781719 0.623437 0 0 0 1 
-0.76472 -0.148654 0.377631 -0.621282 0.781592 0.0558751 0 0 0 1 
-0.69717 0.00438908 0.367058 0.242145 0.968791 -0.0530091 0 0 0 1 
-0.693262 0.0016059 0.387147 0.242145 0.968791 -0.0530091 0 0 0 1 
-0.760966 -0.102317 0.398801 0.647064 -0.336838 -0.683995 0 0 0 1 
-0.663834 -0.0615637 0.438798 0.507526 -0.319967 -0.800024 0 0 0 1 
-0.778544 0.0280177 0.394079 0.944611 0.24658 0.216582 0 0 0 1 
-0.779992 0.151136 0.456632 -0.444019 -0.606273 0.659758 0 0 0 1 
-0.785589 0.129848 0.460566 -0.529224 -0.453313 0.717237 0 0 0 1 
-0.658993 0.154014 0.740438 -0.112661 0.946066 0.303753 0 0 0 1 
-0.547981 0.00303391 0.49156 0.915088 0.392695 0.0916814 0 0 0 1 
-0.677228 0.152562 0.729823 0.080296 0.963248 0.256332 0 0 0 1 
-0.786025 0.153839 0.46278 0.694086 -0.0472804 -0.718338 0 0 0 1 
-0.623019 0.127839 0.44281 -0.320515 -0.412514 0.852703 0 0 0 1 
-0.617963 0.107029 0.504103 -0.515887 0.82963 -0.213483 0 0 0 1 
-0.675388 0.00802732 0.405401 0.713598 -0.133235 -0.687769 0 0 0 1 
-0.594589 0.156398 0.372412 -0.129308 0.802416 0.582587 0 0 0 1 
-0.541154 0.0109958 0.468655 0.915088 0.392695 0.0916814 0 0 0 1 
-0.781824 0.109774 0.388449 0.405255 -0.381392 0.830848 0 0 0 1 
-0.765735 0.0729723 0.386688 0.860922 0.396359 -0.318924 0 0 0 1 
-0.623911 0.126776 0.430529 0.331253 0.296075 0.895886 0 0 0 1 
-0.61981 0.163275 0.43162 -0.30933 -0.368015 0.876858 0 0 0 1 
-0.773343 0.081946 0.434225 -0.0261089 -0.369404 0.928902 0 0 0 1 
-0.592285 0.156913 0.359179 -0.187978 0.894226 0.406231 0 0 0 1 
-0.730434 0.105216 0.383645 0.0557668 0.980443 0.188737 0 0 0 1 
-0.615081 0.155379 0.380252 -0.304743 0.729372 0.612493 0 0 0 1 
-0.653886 0.161392 0.447507 -0.059047 0.137889 0.988686 0 0 0 1 
-0.544736 0.147269 0.350594 0.470977 0.87169 -0.135418 0 0 0 1 
-0.619353 0.155424 0.348416 -0.187978 0.894226 0.406231 0 0 0 1 
-0.614661 0.164431 0.329729 -0.187978 0.894226 0.406231 0 0 0 1 
-0.631511 0.149052 0.353822 -0.187978 0.894226 0.406231 0 0 0 1 
-0.600068 0.162562 0.326872 0.0334979 0.959588 0.279408 0 0 0 1 
-0.767772 -0.129344 0.400941 0.933358 -0.195608 -0.300967 0 0 0 1 
-0.919157 -0.100985 0.20596 0.843429 0.0960638 -0.528582 0 0 0 1 
-0.722965 0.143419 0.329847 -0.0369851 0.960755 0.274922 0 0 0 1 
-0.594846 0.14884 0.475811 -0.607572 -0.160398 0.7779 0 0 0 1 
-0.720757 0.127462 0.372544 0.194122 0.950879 0.241135 0 0 0 1 
-0.769903 -0.14992 0.340786 -0.538352 0.8427 -0.00580759 0 0 0 1 
-0.731405 -0.132101 0.368434 0.923825 0.350753 -0.153361 0 0 0 1 
-0.726104 0.138807 0.30088 0.126479 0.983907 -0.126211 0 0 0 1 
-0.681041 -0.135721 0.452026 -0.531685 0.0764865 0.843481 0 0 0 1 
-0.685971 -0.173847 0.420711 -0.663844 -0.407184 0.627306 0 0 0 1 
-0.724986 0.1246 0.411799 0.0157313 0.989161 -0.145989 0 0 0 1 
-1.76162 -0.254182 -0.176989 -0.413477 0.176768 0.893191 0 0 0 1 
-1.41347 0.152621 0.258921 -0.180767 0.981985 0.0550304 0 0 0 1 
-0.817209 0.146709 0.435695 -0.55384 -0.120073 0.82392 0 0 0 1 
-0.758228 0.115471 0.400277 -0.296112 0.89228 -0.340815 0 0 0 1 
-0.758746 0.129611 0.433202 0.687575 -0.36652 0.62682 0 0 0 1 
-0.828117 0.150701 0.435369 0.690068 -0.320213 -0.649053 0 0 0 1 
-1.47685 0.0972671 0.0174577 -0.406502 0.828493 0.38517 0 0 0 1 
-1.3433 -0.0571128 0.213678 0.990761 -0.0632045 0.119988 0 0 0 1 
-0.804361 0.16607 0.631952 -0.495272 0.385767 0.778389 0 0 0 1 
-0.789559 0.157191 0.659561 -0.495272 0.385766 0.77839 0 0 0 1 
-0.796407 0.150176 0.642443 -0.495272 0.385766 0.77839 0 0 0 1 
-0.677404 0.161604 0.737105 0.080296 0.963248 0.256332 0 0 0 1 
-0.857158 0.165018 0.595087 0.405936 0.73797 -0.539088 0 0 0 1 
-0.765188 0.158366 0.659791 -0.497399 0.315139 0.808258 0 0 0 1 
-0.6792 0.151347 0.723726 -0.218788 0.920465 0.323845 0 0 0 1 
-0.91092 0.152314 0.551354 0.0725853 0.99271 -0.0962195 0 0 0 1 
-0.899253 -0.117928 0.241176 0.761207 0.44706 -0.469789 0 0 0 1 
-0.732027 0.0292681 0.351626 0.223321 0.731351 0.644401 0 0 0 1 
-0.796839 0.15558 0.43073 -0.531527 -0.221762 0.817497 0 0 0 1 
-0.768981 0.145037 0.300951 0.156421 0.976824 -0.146104 0 0 0 1 
-0.786666 0.161693 0.445667 0.694086 -0.0472804 -0.718338 0 0 0 1 
-0.783893 0.145922 0.310326 0.156421 0.976824 -0.146104 0 0 0 1 
-0.636185 0.1461 0.453542 -0.0302952 0.263269 0.964247 0 0 0 1 
-0.785293 0.0664085 0.397481 0.959724 0.147826 -0.238908 0 0 0 1 
-0.596039 0.201928 0.39892 0.960307 -0.265381 0.0859334 0 0 0 1 
-0.803312 0.119749 0.42521 0.391588 0.810841 -0.434966 0 0 0 1 
-0.747894 0.0582218 0.410796 0.873035 0.485814 -0.0423692 0 0 0 1 
-0.536526 0.170441 0.838758 -0.169146 0.943317 0.285557 0 0 0 1 
-0.745892 0.0435222 0.32773 -0.202153 -0.621724 0.756699 0 0 0 1 
-0.723166 -0.166315 0.381732 0.212431 0.894279 0.393876 0 0 0 1 
-1.67224 0.166258 -0.503091 0.00878772 0.999252 0.0376469 0 0 0 1 
-0.443898 0.14934 0.611127 0.0203299 0.994589 -0.10188 0 0 0 1 
-0.767793 -0.0105443 0.346398 0.813146 -0.0903931 -0.574998 0 0 0 1 
-1.24615 0.147574 0.258344 0.409536 0.860963 0.301701 0 0 0 1 
-0.761623 0.0572104 0.327928 0.105137 0.82977 -0.548113 0 0 0 1 
-0.691186 -0.171437 0.435919 0.452893 0.715867 -0.531434 0 0 0 1 
-1.05941 0.167641 0.260051 -0.033343 0.999117 -0.0255509 0 0 0 1 
-0.772432 0.116721 0.241391 0.875913 -0.0958075 -0.472861 0 0 0 1 
-0.800247 0.139175 0.226864 0.840505 -0.022892 -0.54132 0 0 0 1 
-0.968927 -0.0838902 0.149853 0.903764 0.0720703 -0.42192 0 0 0 1 
-1.70394 0.145607 -0.208078 -0.462885 0.769574 0.439878 0 0 0 1 
-1.59367 0.175428 -0.19351 0.18753 0.972862 -0.135546 0 0 0 1 
-0.784253 0.0311312 0.30845 0.991901 -0.0960105 -0.0831476 0 0 0 1 
-0.879421 -0.00827307 0.345179 0.0418173 0.0932816 0.994761 0 0 0 1 
-1.74514 0.101689 -0.650855 0.0272656 0.989604 -0.141212 0 0 0 1 
-1.18851 0.130073 0.296902 0.409536 0.860963 0.301701 0 0 0 1 
-1.19185 0.141644 0.252481 0.122437 0.963236 0.239135 0 0 0 1 
-1.74042 0.138261 -0.323274 -0.592767 0.795749 -0.124141 0 0 0 1 
-1.62549 0.148551 -0.388976 -0.104602 0.948587 -0.298733 0 0 0 1 
-1.18641 0.115606 0.27941 0.0976671 0.970242 0.221565 0 0 0 1 
-0.754334 -0.251451 0.296211 0.724422 0.195744 -0.660982 0 0 0 1 
-0.531121 0.13032 0.377592 0.515542 0.698019 -0.496978 0 0 0 1 
-0.499264 0.119462 0.368143 0.24137 0.815648 -0.525793 0 0 0 1 
-0.495876 0.125565 0.366154 0.24137 0.815648 -0.525793 0 0 0 1 
-0.541052 0.158195 0.206264 0.751342 0.00714344 -0.659875 0 0 0 1 
-0.514275 0.114548 0.35631 0.347863 0.922387 -0.167911 0 0 0 1 
-0.579578 0.133373 0.181816 -0.482008 0.169925 0.859531 0 0 0 1 
-0.503736 0.138272 0.298516 0.156155 0.953069 0.259373 0 0 0 1 
-0.825423 0.133009 0.429723 -0.55384 -0.120073 0.82392 0 0 0 1 
-0.535545 0.153602 0.365884 0.656614 0.745501 -0.114395 0 0 0 1 
-0.532065 0.150525 0.383184 0.515542 0.698019 -0.496978 0 0 0 1 
-0.719846 -0.0777592 0.400397 0.683484 -0.0486663 -0.728342 0 0 0 1 
-0.580163 0.145106 0.473974 -0.607572 -0.160398 0.7779 0 0 0 1 
-0.577422 0.141428 0.0423658 -0.0922247 0.990949 0.0975389 0 0 0 1 
-0.566473 -0.28257 0.484638 0.739146 0.535048 -0.40913 0 0 0 1 
-0.666016 0.0115979 0.387003 0.659133 -0.0888748 -0.746756 0 0 0 1 
-0.501421 0.135728 0.0583286 -0.0458651 0.998859 0.0132803 0 0 0 1 
-0.657009 0.131296 0.811251 -0.0802599 -0.850778 -0.519361 0 0 0 1 
-0.646534 0.139244 0.804731 0.806853 0.590752 -0.000337468 0 0 0 1 
-0.801967 0.12316 0.438173 -0.581055 -0.0559351 0.81194 0 0 0 1 
-0.494391 0.149225 0.268868 -0.241049 0.856462 -0.456474 0 0 0 1 
-0.552826 0.0189365 0.459073 0.81422 0.515984 0.266093 0 0 0 1 
-0.663556 -0.0457279 0.430986 0.519046 -0.369579 -0.770715 0 0 0 1 
-0.766661 -0.124021 0.380224 0.993486 -0.108233 -0.0356686 0 0 0 1 
-0.763703 -0.160623 0.397917 0.186577 0.869698 0.456962 0 0 0 1 
-0.784226 -0.155295 0.4302 -0.497551 0.69763 -0.515515 0 0 0 1 
-0.769179 0.140303 0.45837 -0.529224 -0.453313 0.717237 0 0 0 1 
-0.809241 0.182616 0.63317 -0.495272 0.385767 0.778389 0 0 0 1 
-0.782927 0.143939 0.465191 -0.444019 -0.606273 0.659757 0 0 0 1 
-0.823604 0.15907 0.618986 0.425126 0.787423 -0.446354 0 0 0 1 
-0.827025 0.161049 0.644888 0.425126 0.787423 -0.446354 0 0 0 1 
-0.848941 0.158138 0.615216 0.425126 0.787424 -0.446354 0 0 0 1 
-0.743161 0.12646 0.412449 0.776323 -0.352866 0.52231 0 0 0 1 
-0.390744 0.140976 0.403936 -0.382075 0.9237 0.0282178 0 0 0 1 
-0.409506 0.131181 0.446719 -0.321909 0.925913 0.197635 0 0 0 1 
-0.477105 0.117186 0.372408 0.161819 0.813499 -0.5586 0 0 0 1 
-0.736363 0.135883 0.332631 -0.0369851 0.960755 0.274922 0 0 0 1 
-0.534443 0.125374 0.347496 0.659534 0.751301 0.0237172 0 0 0 1 
-1.29306 0.0896354 -0.253791 0.057812 0.995421 -0.0761207 0 0 0 1 
-0.672754 -0.152155 0.445304 -0.599131 -0.0071831 0.800619 0 0 0 1 
-0.691503 0.0936663 0.437506 0.269614 0.837642 -0.475041 0 0 0 1 
-0.750848 0.00834757 0.364942 -0.0275092 0.827244 -0.56117 0 0 0 1 
-0.767028 0.0496458 0.381405 0.889447 0.274452 -0.36546 0 0 0 1 
-0.763866 0.000275672 0.314983 -0.663842 0.679764 0.311826 0 0 0 1 
-0.793744 -0.156851 0.361776 -0.33366 0.939659 0.0755746 0 0 0 1 
-1.56135 0.110278 -0.303536 0.126685 0.98579 0.11031 0 0 0 1 
-0.455419 0.152018 0.130999 -0.229201 0.958679 0.168529 0 0 0 1 
-0.48203 0.103848 0.354397 0.195625 0.944671 -0.263301 0 0 0 1 
-0.890246 -0.286958 0.243237 -0.672034 -0.101204 0.733572 0 0 0 1 
-0.392244 -0.068883 0.378218 -0.622679 0.170154 0.763753 0 0 0 1 
-0.373489 -0.0513303 0.389237 0.613508 -0.386019 -0.68891 0 0 0 1 
-0.389017 -0.0830992 0.382277 -0.669473 0.171453 0.722779 0 0 0 1 
-0.575769 -0.254582 0.390858 0.739146 0.535048 -0.40913 0 0 0 1 
-0.404343 -0.0691535 0.371391 -0.638349 0.182171 0.74788 0 0 0 1 
-0.459364 0.121282 0.187294 -0.0964263 0.979385 0.177501 0 0 0 1 
-0.424883 0.128213 0.311541 0.701685 -0.320813 -0.636174 0 0 0 1 
-0.44702 0.0978467 0.268485 0.766684 0.639654 0.0551222 0 0 0 1 
-0.702892 0.121817 0.43694 0.252682 0.966612 -0.0425846 0 0 0 1 
-0.447833 0.155287 0.611862 0.0203299 0.994589 -0.10188 0 0 0 1 
-0.574568 -0.280457 0.477562 0.739146 0.535048 -0.40913 0 0 0 1 
-0.392993 -0.0571396 0.375735 -0.686126 0.219306 0.693639 0 0 0 1 
-0.614778 0.123375 0.039933 -0.305387 0.932921 0.190778 0 0 0 1 
-0.372382 -0.0781159 0.394518 0.673923 -0.22349 -0.704188 0 0 0 1 
-0.538272 0.127927 0.10402 -0.1915 0.931309 0.309823 0 0 0 1 
-0.573474 0.125291 0.0947285 -0.113289 0.984381 0.134759 0 0 0 1 
-0.490445 0.136286 0.126008 -0.333159 0.927128 0.17158 0 0 0 1 
-0.506513 0.120125 0.135223 -0.340994 0.886821 0.311883 0 0 0 1 
-0.493912 0.138696 0.0926298 -0.333159 0.927128 0.17158 0 0 0 1 
-0.575163 0.127243 0.0413088 -0.0922247 0.990949 0.0975389 0 0 0 1 
-0.42736 -0.0989988 0.361626 -0.680364 0.342537 0.647899 0 0 0 1 
-0.774791 0.147814 0.658662 -0.495272 0.385767 0.778389 0 0 0 1 
-0.655922 0.155035 0.740669 -0.112661 0.946066 0.303753 0 0 0 1 
-0.57223 0.164135 0.739975 -0.246591 0.938105 0.243211 0 0 0 1 
-0.771038 0.193068 0.469015 -0.481789 -0.329757 0.811874 0 0 0 1 
-0.425437 0.0429911 0.336309 0.491049 0.145914 0.858825 0 0 0 1 
-0.402165 0.131325 0.321968 -0.598193 0.784502 -0.16347 0 0 0 1 
-0.470964 0.122899 0.276865 0.649985 0.659009 -0.378453 0 0 0 1 
-0.537854 0.138029 0.236061 -0.304885 0.30885 0.90092 0 0 0 1 
-0.921049 -0.282757 0.199949 0.672838 0.02734 -0.739284 0 0 0 1 
-0.79971 -0.153988 0.377291 -0.329107 0.941145 0.0770406 0 0 0 1 
-0.76403 -0.152346 0.428749 -0.497551 0.69763 -0.515515 0 0 0 1 
-0.758532 0.0623189 0.415712 0.952622 0.301854 -0.0373738 0 0 0 1 
-0.781344 0.023465 0.347808 0.878226 0.341534 -0.334774 0 0 0 1 
-0.756873 -0.269497 0.351095 0.676595 0.233067 -0.698498 0 0 0 1 
-0.754075 -0.262921 0.355865 0.676595 0.233067 -0.698498 0 0 0 1 
-0.639118 0.146545 0.454784 -0.0302952 0.26327 0.964247 0 0 0 1 
-0.617557 0.131241 0.466365 -0.347246 -0.290016 0.891802 0 0 0 1 
-0.61542 0.148145 0.461912 -0.498405 -0.154463 0.853073 0 0 0 1 
-0.601034 0.160107 0.469866 -0.472061 0.395943 0.787647 0 0 0 1 
-0.598506 0.136133 0.0309236 -0.32933 0.911928 0.244802 0 0 0 1 
-0.5577 0.189539 0.218836 -0.588866 0.506583 0.62977 0 0 0 1 
-0.511927 0.127391 0.0934285 -0.13262 0.95982 0.247301 0 0 0 1 
-0.618414 -0.259832 0.383967 0.498517 0.641859 -0.582665 0 0 0 1 
-0.555695 0.00400251 0.4685 -0.453605 0.109718 0.884423 0 0 0 1 
-0.522567 0.127105 0.0746273 -0.0986402 0.994401 -0.0378993 0 0 0 1 
-0.56121 -0.259919 0.457227 0.739146 0.535048 -0.40913 0 0 0 1 
-0.422223 -0.0903867 0.356554 -0.713736 0.354984 0.603794 0 0 0 1 
-0.395672 0.129572 -0.414923 0.0983154 0.924725 0.36772 0 0 0 1 
-0.38317 0.13367 -0.515411 0.779861 0.619202 0.0916809 0 0 0 1 
-0.459685 0.110706 0.350365 0.862013 -0.0730203 0.501599 0 0 0 1 
-0.365352 0.120998 -0.402356 0.458614 0.699385 0.54821 0 0 0 1 
-0.47974 0.0993313 0.227844 -0.269807 0.960191 -0.072371 0 0 0 1 
-0.37959 -0.0521023 0.377964 -0.559827 0.465686 0.685369 0 0 0 1 
-0.41646 0.244726 -0.793087 0.790815 -0.606834 -0.079771 0 0 0 1 
-0.401303 0.136459 0.428228 -0.283271 0.958767 0.0228688 0 0 0 1 
-1.39838 0.134206 -0.316049 0.134901 0.970771 0.198507 0 0 0 1 
-0.7745 0.0172411 0.418637 0.906216 -0.362016 0.218441 0 0 0 1 
-0.749364 -0.0546436 0.382476 0.597577 -0.29622 -0.745088 0 0 0 1 
-0.734672 0.0322514 0.398976 0.794231 -0.427751 0.431538 0 0 0 1 
-0.61073 0.144959 0.586078 0.937353 -0.0457052 0.345369 0 0 0 1 
-0.627004 0.123518 0.451594 -0.320515 -0.412514 0.852703 0 0 0 1 
-0.626208 0.116467 0.451233 -0.217034 -0.378436 0.899824 0 0 0 1 
-0.453586 0.146753 0.592303 0.0150705 0.995163 -0.0970761 0 0 0 1 
-0.450321 0.152093 0.61111 0.0203299 0.994589 -0.10188 0 0 0 1 
-0.234518 0.148567 0.619893 0.132215 0.967712 0.214598 0 0 0 1 
-0.764726 0.00597909 0.335851 -0.551579 0.633042 0.543156 0 0 0 1 
-0.758349 -0.253102 0.364241 0.676595 0.233067 -0.698498 0 0 0 1 
-0.720646 -0.251853 0.393048 0.568807 0.207242 -0.795933 0 0 0 1 
-0.397002 0.0529221 -0.648523 0.979225 0.109237 -0.170839 0 0 0 1 
-1.06189 -0.0869938 -0.766148 0.0333428 0.907849 0.41797 0 0 0 1 
-0.605031 0.126424 0.386755 0.625975 0.612122 0.483179 0 0 0 1 
-0.584718 0.137183 0.0525197 -0.0922247 0.990949 0.0975389 0 0 0 1 
-0.432599 0.0650379 0.320957 0.837029 -0.129265 -0.53167 0 0 0 1 
-0.416127 0.161553 0.332909 0.017572 0.788873 0.614305 0 0 0 1 
-0.384213 0.00407261 -0.640266 0.843525 0.389421 -0.369886 0 0 0 1 
-0.418357 -0.0749671 0.342925 -0.713736 0.354984 0.603794 0 0 0 1 
-0.190471 0.363181 -0.706822 -0.0584812 0.906498 0.418141 0 0 0 1 
-0.810154 0.182202 0.399371 0.690068 -0.320213 -0.649053 0 0 0 1 
-0.809546 -0.254616 0.323249 0.724422 0.195744 -0.660982 0 0 0 1 
-0.799386 -0.250617 0.326064 0.724422 0.195744 -0.660982 0 0 0 1 
-0.647313 -0.195622 0.460541 -0.367221 -0.443883 0.817384 0 0 0 1 
-0.605007 0.1205 0.452957 0.825048 -0.333473 -0.456171 0 0 0 1 
-1.05724 -0.103781 -0.692982 -0.506551 0.859846 0.0637983 0 0 0 1 
-0.681531 0.0716645 0.384526 -0.544995 -0.174064 0.820172 0 0 0 1 
-0.649962 0.125381 0.00758243 -0.305387 0.932921 0.190778 0 0 0 1 
-0.432517 0.058752 0.337118 0.857426 0.102882 0.504218 0 0 0 1 
-0.596936 0.126853 0.069907 -0.0922247 0.990949 0.0975389 0 0 0 1 
-0.379324 -0.058203 0.387191 0.613508 -0.386019 -0.68891 0 0 0 1 
-0.24236 -0.0233404 -0.529341 0.859269 0.361847 -0.361558 0 0 0 1 
-0.218524 0.29516 -0.569884 0.097974 0.873559 0.476755 0 0 0 1 
-0.737464 -0.154331 0.407988 0.815872 0.160626 0.555475 0 0 0 1 
-0.700293 -0.254064 0.409735 -0.370702 -0.399299 0.838535 0 0 0 1 
-0.63966 0.174301 0.591865 0.864485 -0.398234 0.306717 0 0 0 1 
-0.724177 0.134999 0.336569 -0.186449 0.911899 0.365618 0 0 0 1 
-0.655231 0.101878 0.439878 -0.0930829 -0.302058 0.948734 0 0 0 1 
-1.07304 -0.085543 -0.719911 -0.0370412 0.997892 0.0532873 0 0 0 1 
-0.874191 0.272416 -0.56883 0.625022 -0.680993 -0.381571 0 0 0 1 
-0.477699 0.113559 0.323245 -0.110372 0.983598 0.142664 0 0 0 1 
-0.412112 -0.0810975 0.360625 -0.713736 0.354984 0.603794 0 0 0 1 
-0.375837 0.119796 -0.512357 0.595959 0.768433 0.233119 0 0 0 1 
-0.768825 0.129186 0.323023 -0.0900037 0.944959 0.314565 0 0 0 1 
-0.215592 0.341667 -0.680692 -0.0584811 0.906498 0.418141 0 0 0 1 
-0.253126 -0.0303098 -0.541073 0.859269 0.361847 -0.361558 0 0 0 1 
-0.641801 -0.167274 0.468324 -0.39071 -0.0492843 0.919193 0 0 0 1 
-0.584324 -0.294476 0.441678 0.739146 0.535048 -0.40913 0 0 0 1 
-0.564365 -0.1485 0.496707 -0.296885 -0.109202 0.948649 0 0 0 1 
-0.579887 0.149119 0.490289 0.107613 0.98567 -0.129904 0 0 0 1 
-0.577051 0.137781 0.483323 -0.607572 -0.160398 0.7779 0 0 0 1 
-1.07316 -0.0372569 -0.785183 0.142321 0.800286 0.582483 0 0 0 1 
-0.546215 -0.289968 0.479941 0.739146 0.535048 -0.40913 0 0 0 1 
-0.946711 0.0638298 -0.610348 0.961228 -0.220846 0.165129 0 0 0 1 
-0.941571 0.112467 -0.624817 0.988743 0.0646855 0.134919 0 0 0 1 
-0.929326 0.150476 -0.601818 0.993648 0.0808614 0.0782671 0 0 0 1 
-0.732925 0.125604 -0.0612038 -0.157965 0.969878 0.185429 0 0 0 1 
-0.929876 0.271661 -0.632348 0.758 -0.609164 -0.233142 0 0 0 1 
-0.907969 0.348251 -0.739837 0.895757 -0.40892 -0.174368 0 0 0 1 
-0.603801 0.137275 0.0283477 -0.305387 0.932921 0.190778 0 0 0 1 
-0.571988 0.124456 0.0735418 0.0922758 0.995568 -0.0181707 0 0 0 1 
-0.588334 0.143419 0.0864071 -0.237765 0.952601 0.189785 0 0 0 1 
-0.465724 0.127845 0.241369 0.606502 0.674089 -0.421615 0 0 0 1 
-0.453434 0.119897 0.287697 -0.442984 -0.400392 0.802154 0 0 0 1 
-0.422057 0.0701596 0.334333 0.857426 0.102881 0.504218 0 0 0 1 
-0.352068 0.13108 -0.430515 0.458614 0.699385 0.54821 0 0 0 1 
-0.316627 0.165231 -0.460479 0.458229 0.876723 0.146227 0 0 0 1 
-0.311383 0.0796825 -0.407983 0.38415 0.907003 0.172551 0 0 0 1 
-0.280515 -0.091032 -0.522417 0.859269 0.361847 -0.361558 0 0 0 1 
-0.263428 0.178382 -0.158318 0.952683 0.134888 -0.272396 0 0 0 1 
-0.369822 0.133027 -0.621598 0.976879 0.156273 -0.145896 0 0 0 1 
-0.24569 0.30866 -0.652477 0.0114645 0.935727 0.35254 0 0 0 1 
-0.718177 0.132184 0.348838 -0.167206 0.917757 0.360229 0 0 0 1 
-1.38569 -0.0484204 -0.930155 0.782085 0.33316 -0.526638 0 0 0 1 
-0.549092 -0.282485 0.476695 0.739146 0.535048 -0.40913 0 0 0 1 
-1.00397 -0.0153931 -0.59345 -0.587085 0.698775 -0.408711 0 0 0 1 
-0.990669 0.112247 -0.528435 -0.363196 0.502746 0.784433 0 0 0 1 
-0.581354 0.113397 0.413713 0.734749 0.656776 0.169672 0 0 0 1 
-0.974494 0.00895482 -0.601383 -0.74638 0.555644 -0.366301 0 0 0 1 
-0.953839 0.14138 -0.549662 0.769703 0.637848 -0.0265999 0 0 0 1 
-0.764646 0.110591 -0.0808887 -0.157965 0.969878 0.185429 0 0 0 1 
-1.06046 -0.0651137 -0.629595 0.560564 -0.779703 0.278982 0 0 0 1 
-0.962786 0.0415442 -0.61663 -0.744003 0.429468 -0.511875 0 0 0 1 
-0.617039 0.133542 0.205131 0.085507 0.952406 0.292595 0 0 0 1 
-0.923664 0.254051 -0.667908 0.872161 -0.46058 -0.16493 0 0 0 1 
-0.745748 0.0983422 -0.0424652 -0.157965 0.969878 0.185429 0 0 0 1 
-0.647387 0.114889 0.028029 -0.305387 0.932921 0.190778 0 0 0 1 
-0.634317 0.125606 -0.00573468 -0.305387 0.932921 0.190778 0 0 0 1 
-0.5592 0.127323 0.2034 -0.702706 0.493694 0.512319 0 0 0 1 
-0.519788 0.132405 0.286406 -0.0178316 0.986706 0.161534 0 0 0 1 
-0.501854 0.108072 0.328212 0.520212 0.835414 0.17738 0 0 0 1 
-0.549895 0.138657 0.109383 0.136203 0.972904 0.186831 0 0 0 1 
-0.580097 0.131869 0.181231 -0.482008 0.169925 0.859531 0 0 0 1 
-0.575834 0.125476 0.156519 0.131689 0.991265 0.00725374 0 0 0 1 
-0.540098 0.139092 0.234714 -0.304885 0.30885 0.90092 0 0 0 1 
-0.539129 0.138915 0.211211 0.715556 -0.0572754 -0.696204 0 0 0 1 
-0.537947 0.0996223 0.136373 0.0235769 0.998357 0.0522298 0 0 0 1 
-0.42268 0.114538 0.32395 0.882905 -0.194718 -0.427275 0 0 0 1 
-0.274135 0.311862 -0.551966 0.474846 -0.805013 -0.355634 0 0 0 1 
-1.28348 -0.0308805 -0.749444 0.785999 0.431824 -0.442418 0 0 0 1 
-0.617384 0.155962 0.51881 -0.480406 0.865018 0.144755 0 0 0 1 
-1.23846 -0.0622756 -0.701771 0.686484 0.597868 -0.413876 0 0 0 1 
-1.16454 -0.0581186 -0.665685 -0.291105 -0.757665 0.584125 0 0 0 1 
-1.15432 -0.0449291 -0.648501 -0.22041 -0.590388 0.776442 0 0 0 1 
-1.06832 -0.0867495 -0.599014 0.901628 0.00508214 -0.432483 0 0 0 1 
-1.0652 -0.041596 -0.574059 0.730891 -0.596815 0.331075 0 0 0 1 
-1.04892 0.0298845 -0.54823 -0.407996 -0.452942 0.792706 0 0 0 1 
-1.02417 -0.0476811 -0.565093 0.62339 -0.649399 0.435507 0 0 0 1 
-0.605721 0.113399 0.38277 -0.264121 0.58858 0.764077 0 0 0 1 
-0.979747 0.149915 -0.49267 -0.106886 0.451526 0.885833 0 0 0 1 
-0.978935 0.131038 -0.504374 -0.069815 0.712386 0.698306 0 0 0 1 
-0.679425 0.0989861 0.114034 0.21558 0.970179 -0.110809 0 0 0 1 
-1.00342 0.0106278 -0.532485 0.442744 -0.498767 0.745123 0 0 0 1 
-0.586772 0.0968763 0.40248 0.734749 0.656776 0.169672 0 0 0 1 
-0.961837 -0.00396287 -0.683365 0.67231 -0.712442 0.201062 0 0 0 1 
-0.611682 0.107425 0.120646 -0.240887 0.969291 0.0494907 0 0 0 1 
-1.00083 -0.0407758 -0.720847 -0.636158 0.734216 0.23713 0 0 0 1 
-0.544762 0.0989876 0.218672 -0.521857 0.0828764 0.848997 0 0 0 1 
-0.565396 0.190377 0.153726 -0.457874 0.888727 0.0226994 0 0 0 1 
-0.480254 0.0944612 0.34798 0.152355 0.964912 -0.213852 0 0 0 1 
-0.283361 0.287736 -0.23815 0.981322 -0.172196 -0.0857682 0 0 0 1 
-0.189915 0.352977 -0.685857 -0.0584812 0.906498 0.418141 0 0 0 1 
0.00448272 0.326642 -0.647029 -0.334331 0.145662 0.931131 0 0 0 1 
0.00762016 0.211375 -0.594469 0.871715 -0.145948 -0.467773 0 0 0 1 
0.0457141 0.33099 -0.641139 -0.635505 -0.0342475 0.771337 0 0 0 1 
-0.39098 0.125898 -0.44355 -0.431391 0.882611 0.186814 0 0 0 1 
-0.538896 -0.216593 0.477634 0.691013 0.270008 -0.67052 0 0 0 1 
-0.606503 0.150924 0.451574 0.751004 -0.122593 -0.648817 0 0 0 1 
-1.16841 0.0204201 -0.61706 -0.271551 -0.406707 0.872267 0 0 0 1 
-1.14258 0.0426345 -0.597048 0.533697 0.544733 -0.646864 0 0 0 1 
-1.12921 0.1303 -0.546266 -0.5193 0.303255 0.798977 0 0 0 1 
-1.16217 0.175367 -0.602819 -0.549286 -0.0145481 0.835507 0 0 0 1 
-1.13128 -0.00241426 -0.627034 0.0271735 -0.564286 0.825132 0 0 0 1 
-1.09273 0.106519 -0.547845 -0.40274 0.107826 0.908941 0 0 0 1 
-1.0724 0.125171 -0.541074 -0.206741 0.113426 0.971799 0 0 0 1 
-1.05536 0.144984 -0.55086 -0.159615 0.954408 0.252246 0 0 0 1 
-1.0085 0.0631141 -0.510129 0.0401974 -0.348075 0.936605 0 0 0 1 
-1.10539 0.0441797 -0.574281 0.468536 0.588171 -0.659188 0 0 0 1 
-0.683222 0.143423 0.14333 0.437871 0.791442 -0.426483 0 0 0 1 
-0.664318 0.148176 0.157757 0.437871 0.791442 -0.426483 0 0 0 1 
-1.04304 0.0602786 -0.509392 -0.0723864 -0.0402098 0.996566 0 0 0 1 
-0.576183 0.107437 0.237642 -0.284633 -0.016757 0.95849 0 0 0 1 
-0.482189 0.131633 0.282917 0.136304 0.7394 0.659324 0 0 0 1 
-0.464019 0.143034 0.280228 0.481909 0.864496 -0.142868 0 0 0 1 
-0.631021 0.148231 0.156608 0.245081 0.958505 -0.145611 0 0 0 1 
-0.98015 0.172017 -0.557103 -0.231532 0.854965 0.464141 0 0 0 1 
-1.03587 0.023268 -0.789205 0.673137 -0.366151 -0.642511 0 0 0 1 
-0.92595 0.394995 -0.816681 0.91484 -0.295142 -0.275606 0 0 0 1 
-0.385204 -0.0938058 0.393656 -0.686323 0.156006 0.710369 0 0 0 1 
-0.297765 -0.102295 0.438129 -0.425039 0.320695 0.846461 0 0 0 1 
-0.298025 0.335597 -0.306314 0.79887 0.565104 0.206068 0 0 0 1 
-0.0965415 0.36272 -0.72778 0.000224864 0.907584 0.419869 0 0 0 1 
-0.0666539 -0.190374 -0.634821 0.092715 -0.0225316 0.995438 0 0 0 1 
0.0416859 0.266084 -0.692545 -0.508806 0.219278 0.832487 0 0 0 1 
0.205266 0.863202 -0.706278 -0.51713 0.739099 0.431636 0 0 0 1 
0.0238256 0.319895 -0.629999 -0.603604 0.415676 0.680349 0 0 0 1 
-0.773027 0.332255 -0.0483308 -0.502761 -0.0742814 0.861228 0 0 0 1 
-1.35101 0.127936 -0.713295 -0.716745 -0.176484 0.674634 0 0 0 1 
-0.592359 0.144296 0.479327 -0.607572 -0.160398 0.7779 0 0 0 1 
-1.27938 0.0432627 -0.726853 0.677075 0.428314 -0.598429 0 0 0 1 
-1.23878 -0.0792144 -0.705662 0.686484 0.597868 -0.413876 0 0 0 1 
-1.23976 0.173394 -0.632796 -0.574034 -0.0242154 0.818473 0 0 0 1 
-1.20807 0.0552083 -0.622311 0.0173006 -0.19648 0.980355 0 0 0 1 
-1.18831 0.0927123 -0.587462 0.723235 0.0915286 -0.68451 0 0 0 1 
-1.19479 0.125707 -0.604837 -0.61799 -0.0781389 0.782293 0 0 0 1 
-0.587756 0.0734322 0.432415 0.785184 0.563985 0.25575 0 0 0 1 
-1.15635 0.0563796 -0.583952 0.550003 0.611712 -0.568599 0 0 0 1 
-1.19858 0.185864 -0.621177 -0.588205 -0.028405 0.808213 0 0 0 1 
-0.6221 0.13739 0.379124 0.0562596 0.886091 0.460085 0 0 0 1 
-1.12281 0.0679875 -0.538472 0.695582 0.0507802 -0.71665 0 0 0 1 
