ply
format ascii 1.0
comment VCGLIB generated
element vertex 692
property float x
property float y
property float z
property float nx
property float ny
property float nz
property uchar red
property uchar green
property uchar blue
property uchar alpha
element face 0
property list uchar int vertex_indices
end_header
-0.763328 -0.830418 -1.98811 -0.716461 0.227871 0.659362 0 255 0 255 
-1.52118 0.176378 -1.91856 0.547501 -0.726226 -0.415739 0 255 0 255 
-1.40226 -0.0498563 -1.6253 0.887787 -0.0307102 -0.459229 0 255 0 255 
-1.87084 0.0138266 -1.73248 0.0233066 -0.995158 -0.0954837 0 255 0 255 
-1.80357 0.0489458 -1.65036 0.208958 -0.926898 -0.311765 0 255 0 255 
-2.20021 -0.978297 -2.15797 0.688927 0.260092 -0.676559 0 255 0 255 
-1.17868 1.16623 -0.668544 -0.367446 -0.0985958 -0.924804 0 255 0 255 
-1.12074 1.11059 -0.720899 -0.43915 -0.059172 -0.896463 0 255 0 255 
-1.15605 1.11247 -0.664075 -0.395663 -0.0328244 -0.917809 0 255 0 255 
-2.05034 -0.810978 -2.10319 0.853755 -0.0710219 -0.515809 0 255 0 255 
-0.581213 0.973356 -0.538446 0.830557 -0.513719 -0.215101 0 255 0 255 
-1.50682 -0.311969 -1.7104 0.767064 -0.453844 -0.453473 0 255 0 255 
-0.604942 -0.535136 -1.92517 -0.771855 0.339031 0.537864 0 255 0 255 
-1.53865 -0.343797 -1.88559 0.61563 0.684678 -0.390149 0 255 0 255 
-1.10592 0.428381 -1.7354 0.625093 0.772147 -0.114228 0 255 0 255 
-1.78663 -0.265447 -1.72656 0.26205 0.475745 -0.83964 0 255 0 255 
-2.0203 0.0111259 -2.04666 0.408251 0.53608 -0.738884 0 255 0 255 
-1.89245 0.0419515 -1.87823 0.716445 -0.595289 -0.363783 0 255 0 255 
-2.09481 0.138732 -2.13917 0.264146 0.416696 -0.869823 0 255 0 255 
-2.0385 0.208954 -2.11142 0.715035 0.463534 -0.523317 0 255 0 255 
-0.871601 0.546263 -0.834743 0.686873 0.547775 -0.477648 0 255 0 255 
-2.47131 -1.09148 -2.44312 0.651409 0.116413 -0.749743 0 255 0 255 
-3.28783 1.21117 -7.58188 -0.933657 0.0810564 0.348877 0 255 0 255 
-0.517618 1.16634 -1.39637 0.114247 -0.955792 0.270943 0 255 0 255 
-0.652233 -0.854837 -2.12302 -0.716461 0.227871 0.659362 0 255 0 255 
-0.877376 -0.266652 -1.21173 0.825653 -0.151013 -0.543591 0 255 0 255 
-1.9413 -0.772821 -1.86602 0.869103 0.159349 -0.46826 0 255 0 255 
-1.79797 0.19017 -1.99567 0.245748 -0.954149 0.170899 0 255 0 255 
-2.45239 -0.897553 -2.42001 0.703927 0.0695203 -0.706862 0 255 0 255 
-2.41408 -0.861285 -2.32406 0.651409 0.116413 -0.749743 0 255 0 255 
-1.32692 -0.443454 -1.84047 -0.844902 -0.0469667 0.532855 0 255 0 255 
-0.926597 1.15591 -2.11257 -0.225897 -0.851367 -0.47344 0 255 0 255 
-0.881556 1.2627 -2.34304 -0.282148 -0.888258 -0.362477 0 255 0 255 
-2.11023 -0.50654 -1.85059 0.873067 -0.0435003 -0.485657 0 255 0 255 
-2.0513 -0.871423 -1.88663 0.79867 0.115772 -0.590527 0 255 0 255 
-2.55143 -0.604892 -2.53801 0.61569 0.233805 -0.752503 0 255 0 255 
-2.06263 -0.516417 -1.97683 0.852668 0.107841 -0.511202 0 255 0 255 
-2.193 -0.596494 -2.26231 0.555975 0.112626 -0.823533 0 255 0 255 
-0.900961 -0.779089 -2.03785 -0.570397 0.284957 0.770355 0 255 0 255 
-4.08291 -1.1246 -3.75343 -0.671171 0.560322 0.485354 0 255 0 255 
-0.518432 1.17171 -1.39747 0.114247 -0.955792 0.270943 0 255 0 255 
-2.06321 -0.116765 -2.00091 0.645547 0.760958 -0.0648963 0 255 0 255 
-2.07969 0.171652 -2.02235 0.234046 0.86049 -0.452525 0 255 0 255 
-1.04897 0.137504 -0.929127 -0.0996254 0.929346 -0.355514 0 255 0 255 
-1.25718 -0.303234 -1.42728 0.679373 0.135903 -0.721099 0 255 0 255 
-1.70374 0.164342 -2.13429 -0.0700177 -0.971469 0.226594 0 255 0 255 
-0.836946 0.475187 -0.740461 0.256883 0.647726 0.71726 0 255 0 255 
-1.24477 -0.370212 -1.5404 -0.66471 0.608912 -0.432881 0 255 0 255 
-0.837753 1.06401 -1.12212 0.846157 0.508474 -0.159604 0 255 0 255 
-1.07158 1.03515 -1.69507 0.423057 -0.859104 -0.288034 0 255 0 255 
-1.30051 -0.296171 -1.57953 0.463219 0.109251 -0.879484 0 255 0 255 
-1.51781 -0.076371 -1.89776 0.844121 -0.303757 -0.441804 0 255 0 255 
-1.05083 0.589092 -1.78572 0.879609 0.131093 -0.457278 0 255 0 255 
-1.34225 1.23116 -0.689256 0.843827 0.141262 -0.517688 0 255 0 255 
-1.34329 1.18638 -0.693867 -0.0092549 -0.628642 -0.77764 0 255 0 255 
-1.16471 1.07666 -0.659001 -0.395663 -0.0328243 -0.917809 0 255 0 255 
-2.4553 -0.602845 -2.37599 0.555096 0.263348 -0.788997 0 255 0 255 
-1.05065 1.04451 -0.545501 -0.492269 -0.569097 0.658635 0 255 0 255 
-0.921542 1.25893 -0.838735 0.585915 -0.49615 -0.640733 0 255 0 255 
-6.29412 -1.10497 -6.68968 0.616657 0.77334 0.147242 0 255 0 255 
-0.65764 0.477925 0.168784 0.701045 -0.532235 -0.474618 0 255 0 255 
-2.007 1.13675 -0.602244 0.344206 -0.784334 -0.516084 0 255 0 255 
-1.42132 0.108888 -1.63512 0.996632 -0.0280415 -0.0770611 0 255 0 255 
-0.619855 0.496126 -0.574043 0.965768 0.184367 -0.182483 0 255 0 255 
-1.17146 0.612466 -0.491595 0.593496 0.692617 -0.409931 0 255 0 255 
-1.36904 0.283006 -0.767427 0.501281 0.443489 -0.742991 0 255 0 255 
-1.16769 0.595105 -0.53107 0.565713 0.817169 -0.110471 0 255 0 255 
-1.21999 0.181321 -0.654736 0.5201 0.573198 -0.633198 0 255 0 255 
-1.34102 0.73582 -0.742642 -0.15805 -0.663951 -0.730883 0 255 0 255 
-0.595645 1.1094 -0.591836 -0.780285 -0.622876 0.0564018 0 255 0 255 
-1.01765 0.357505 -1.77628 0.884199 0.451499 -0.119752 0 255 0 255 
-3.14201 -0.818713 -1.9657 -0.84329 -0.0347939 0.536332 0 255 0 255 
-2.91162 0.960911 -1.56097 0.830517 0.0712152 0.552421 0 255 0 255 
-3.25729 0.206061 -1.94583 -0.911156 -0.33526 -0.239575 0 255 0 255 
-3.86799 1.34453 -2.44068 0.644711 0.570049 -0.509305 0 255 0 255 
-3.52155 0.308641 -2.30772 -0.414152 -0.609253 0.676232 0 255 0 255 
-1.03931 0.425715 -0.217816 0.528787 -0.317394 -0.787175 0 255 0 255 
-0.634562 0.487484 0.133802 -0.549555 -0.748058 -0.37202 0 255 0 255 
-2.69081 0.129065 -1.66189 0.0107998 -0.999859 -0.0128705 0 255 0 255 
-1.2007 0.700821 -0.367256 0.53911 0.279555 -0.794487 0 255 0 255 
-1.17763 0.603466 -0.408429 0.523314 0.572368 -0.631298 0 255 0 255 
-2.71568 0.722138 -1.86132 0.866931 0.28661 0.407781 0 255 0 255 
-1.07387 0.18967 -0.486883 0.308351 0.689597 -0.655268 0 255 0 255 
-1.24016 1.0986 -0.64336 -0.421558 -0.183336 -0.888075 0 255 0 255 
-1.23043 1.14998 -0.638309 -0.0269618 -0.387307 -0.921556 0 255 0 255 
-0.607576 0.51065 0.0270068 -0.664602 -0.627267 -0.406005 0 255 0 255 
-2.24161 0.218745 -1.99311 0.455461 0.773373 -0.440965 0 255 0 255 
-0.58694 0.519919 0.00986862 -0.44764 -0.623458 -0.641029 0 255 0 255 
-1.19145 0.0505067 -0.75668 0.0827842 0.894935 -0.438451 0 255 0 255 
-2.16437 0.053733 -2.01381 0.665494 0.587175 -0.460808 0 255 0 255 
-0.960153 0.101272 -0.660262 -0.430537 0.840768 -0.328249 0 255 0 255 
-2.95924 -1.53335 -4.09189 0.860953 -0.475266 0.181335 0 255 0 255 
-0.6155 1.11085 -0.566816 -0.590376 -0.720013 0.364742 0 255 0 255 
-0.649289 1.13719 -0.639636 -0.640927 -0.313196 -0.7008 0 255 0 255 
-1.28395 -0.450763 -2.08352 -0.176491 0.956875 0.230743 0 255 0 255 
-0.947662 1.12176 -0.8607 0.775842 0.619025 0.121972 0 255 0 255 
-1.01548 0.699876 -1.67405 0.983258 -0.0875848 0.15979 0 255 0 255 
-1.45439 -0.483197 -2.60579 0.24452 0.968927 0.0372929 0 255 0 255 
-0.880831 1.0024 -1.80619 0.426044 -0.825657 0.369834 0 255 0 255 
-0.943068 -0.0897197 -2.13712 -0.427152 0.209654 -0.879538 0 255 0 255 
-1.08702 0.7791 -1.08582 0.216796 -0.907951 -0.358642 0 255 0 255 
-1.20086 0.418049 -0.449832 0.63483 -0.156452 -0.756646 0 255 0 255 
-2.48357 0.97362 -1.61888 0.953522 0.295183 -0.0605273 0 255 0 255 
-1.29206 0.461702 -0.63004 0.930103 -0.156346 -0.332361 0 255 0 255 
-1.35314 0.234004 -0.784645 0.528117 0.424283 -0.735579 0 255 0 255 
-1.27812 1.09679 -0.619425 -0.290921 -0.350404 -0.890271 0 255 0 255 
-1.23056 1.14624 -0.626121 -0.211388 -0.388435 -0.896902 0 255 0 255 
-5.13412 -1.27993 -3.98601 -0.42018 -0.446384 -0.790057 0 255 0 255 
-1.32743 0.486096 -0.524442 0.661135 0.457999 -0.594254 0 255 0 255 
-1.18694 0.692678 -0.366138 0.53911 0.279555 -0.794487 0 255 0 255 
-1.3429 0.473677 -0.558719 0.661135 0.457999 -0.594254 0 255 0 255 
-1.28466 0.44324 -0.611261 0.531194 0.442955 -0.722235 0 255 0 255 
-1.29087 0.685344 -0.63351 0.696438 0.666303 -0.266483 0 255 0 255 
-1.24508 0.0813833 -0.808708 0.0438891 0.717915 -0.694746 0 255 0 255 
-1.1525 1.15026 -0.645037 -0.475955 -0.214193 -0.852987 0 255 0 255 
-9.60053 -2.07246 -7.8284 -0.148718 0.975499 0.162126 0 255 0 255 
-1.47116 0.568934 -0.770208 0.868999 -0.152254 -0.470807 0 255 0 255 
-2.65319 1.02432 -1.1805 -0.778184 0.471748 0.414588 0 255 0 255 
-3.9591 1.83758 -2.09239 -0.31072 0.0452258 0.949425 0 255 0 255 
-3.2279 -0.938339 -1.90608 -0.317129 0.943711 0.0940177 0 255 0 255 
-3.18676 1.45142 -1.56858 0.360278 0.658789 0.660452 0 255 0 255 
-3.38996 1.69476 -1.68416 -0.56728 0.0836806 0.819262 0 255 0 255 
-3.74702 1.81878 -1.93103 -0.39852 0.487984 0.776565 0 255 0 255 
-3.2845 1.71696 -1.61839 -0.514917 0.195852 0.834567 0 255 0 255 
-3.58297 1.30613 -1.94882 0.442929 0.865513 -0.233884 0 255 0 255 
-3.77514 0.362339 -2.34778 -0.633639 -0.747042 -0.201072 0 255 0 255 
-5.28212 -1.26481 -4.05153 0.0381991 -0.489284 -0.871288 0 255 0 255 
-3.43372 1.14587 -2.10471 0.0701463 0.985512 -0.154423 0 255 0 255 
-1.13223 0.549467 -0.301692 0.548599 0.626953 -0.553145 0 255 0 255 
-1.37566 1.04885 -0.566098 -0.164018 -0.570725 -0.804594 0 255 0 255 
-3.0317 -1.32149 -2.75202 0.13197 0.835105 -0.534026 0 255 0 255 
-0.870056 1.17072 -0.67108 0.689853 -0.302038 -0.657933 0 255 0 255 
-0.93084 1.15417 -0.830176 0.75312 0.652099 0.0870451 0 255 0 255 
-1.56728 -0.193617 -1.93894 0.8063 -0.149315 -0.57235 0 255 0 255 
-1.08739 1.46777 -1.18288 0.859838 0.50916 -0.0378688 0 255 0 255 
-1.85364 -0.395793 -2.59377 0.379014 0.920832 -0.0917479 0 255 0 255 
-1.72272 0.114258 -2.0858 -0.180577 -0.955786 0.232089 0 255 0 255 
-0.888163 0.512924 -0.796339 0.264902 -0.23202 0.935945 0 255 0 255 
-1.00978 0.6925 -1.02255 0.116341 -0.814265 -0.568715 0 255 0 255 
-0.656537 1.10679 -0.620238 -0.390519 0.0681601 -0.918068 0 255 0 255 
-1.17886 0.0931074 -1.52349 0.356205 0.0650098 -0.932144 0 255 0 255 
-1.18085 -0.158781 -1.558 0.547151 -0.811565 0.204909 0 255 0 255 
-0.80524 0.429363 -0.878878 -0.0188233 0.997039 0.0745539 0 255 0 255 
-0.73131 0.409587 -0.811667 -0.538259 0.815347 0.213275 0 255 0 255 
-1.5836 0.120063 -1.86927 -0.292121 -0.907414 -0.302103 0 255 0 255 
-0.708614 0.469297 -0.858476 -0.599573 0.730062 0.327906 0 255 0 255 
-1.08774 -0.104816 -1.49897 0.336345 -0.377983 -0.862555 0 255 0 255 
-4.53286 1.05859 -2.3625 -0.382922 0.49788 0.77813 0 255 0 255 
-0.650647 0.449433 0.202995 0.664554 -0.695261 -0.273826 0 255 0 255 
-0.629143 0.46393 0.200861 -0.445816 -0.890284 -0.0929655 0 255 0 255 
-1.27527 0.720766 -0.634692 0.696438 0.666304 -0.266483 0 255 0 255 
-0.962587 0.964601 -0.597434 -0.187021 -0.90186 0.389451 0 255 0 255 
-1.47273 -0.151244 -1.85207 0.878484 -0.0769873 -0.471529 0 255 0 255 
-1.16431 0.0285059 -1.46635 0.80042 0.233663 -0.552023 0 255 0 255 
-1.02333 -0.0803352 -1.306 0.807894 0.573367 -0.136228 0 255 0 255 
-2.03386 -0.490646 -1.94459 0.852668 0.107841 -0.511202 0 255 0 255 
-2.6833 0.701356 -1.85476 0.866931 0.28661 0.407781 0 255 0 255 
-4.5385 -1.70929 -5.86186 -0.12988 0.973616 0.187625 0 255 0 255 
-0.933537 1.26895 -1.15183 0.82581 0.561796 -0.0492316 0 255 0 255 
-3.19538 -0.484456 -1.68954 -0.880359 -0.474062 -0.0152548 0 255 0 255 
-3.20544 -0.41618 -1.69673 -0.932372 -0.301957 -0.198758 0 255 0 255 
-3.27494 -0.277589 -1.75416 -0.854319 0.359401 0.37546 0 255 0 255 
-3.90685 1.4303 -2.05736 0.651955 0.673353 -0.34864 0 255 0 255 
-3.54855 1.64516 -1.72945 -0.543276 0.25948 0.798449 0 255 0 255 
-3.86149 0.40864 -2.454 -0.274782 -0.7965 0.538593 0 255 0 255 
-3.36396 0.264371 -2.16307 -0.667008 -0.736297 0.113876 0 255 0 255 
-1.09752 0.581148 -0.363278 0.548599 0.626953 -0.553145 0 255 0 255 
-2.63068 1.16172 -1.8638 0.748522 0.135645 -0.649088 0 255 0 255 
-2.7935 1.0863 -1.89326 0.415242 0.56155 0.715706 0 255 0 255 
-8.03834 -1.84109 -8.35434 0.108823 0.8659 0.488236 0 255 0 255 
-1.32911 0.713097 -0.742804 -0.158051 -0.66395 -0.730883 0 255 0 255 
-2.33337 0.281983 -2.35019 0.745677 -0.451737 -0.489796 0 255 0 255 
-1.40119 0.563958 -0.665449 0.64563 -0.322735 -0.692101 0 255 0 255 
-2.21229 0.124114 -1.4907 -0.187804 -0.934554 -0.302222 0 255 0 255 
-1.14137 0.710074 -0.884444 0.252906 -0.880825 -0.400233 0 255 0 255 
-2.09227 0.139191 -1.9174 0.281179 0.469987 -0.83669 0 255 0 255 
-2.04664 -0.037648 -1.98233 0.453148 0.633748 -0.626913 0 255 0 255 
-5.02321 -1.82326 -6.74887 -0.248049 0.657337 -0.711603 0 255 0 255 
-1.74886 -0.218806 -2.17269 0.800964 0.0461965 -0.596927 0 255 0 255 
-5.8604 -1.31872 -8.05284 -0.12885 0.946899 -0.294586 0 255 0 255 
-0.78282 0.809738 -0.544197 0.838179 0.510758 0.191265 0 255 0 255 
-1.2245 0.234294 -1.56806 0.281034 -0.458782 -0.842935 0 255 0 255 
-0.843475 1.04395 -1.24636 0.972835 0.0129021 -0.23114 0 255 0 255 
-3.94603 -1.14828 -2.30474 -0.517525 0.45418 0.725182 0 255 0 255 
-2.69348 0.470326 -1.16654 -0.926186 0.260187 -0.272915 0 255 0 255 
-2.96001 0.641835 -1.34052 0.823258 -0.440111 0.358537 0 255 0 255 
-2.24876 0.141898 -2.14201 0.560573 0.593183 -0.577833 0 255 0 255 
-3.80013 -0.291059 -2.06753 -0.00512602 -0.850829 0.525417 0 255 0 255 
-3.97242 -0.550215 -2.19927 -0.0057956 -0.985702 0.168396 0 255 0 255 
-3.03644 -0.817302 -1.5598 -0.962702 -0.183536 0.198795 0 255 0 255 
-0.636035 0.488724 0.132359 -0.549555 -0.748058 -0.37202 0 255 0 255 
-3.55712 1.25689 -1.72554 0.00683311 0.99975 0.0212971 0 255 0 255 
-3.66749 1.30676 -2.19856 0.592735 0.729066 -0.34224 0 255 0 255 
-1.54325 0.155327 -1.9557 -0.447277 -0.120549 -0.886234 0 255 0 255 
-1.3867 -0.184238 -1.57027 0.615383 0.237267 -0.75167 0 255 0 255 
-1.09011 -0.233643 -1.40599 0.764731 -0.598919 -0.237662 0 255 0 255 
-2.28607 -0.929618 -2.18596 0.623103 -0.0971622 -0.776081 0 255 0 255 
-5.34909 2.1047 -3.16322 -0.451808 0.314644 0.834786 0 255 0 255 
-3.56332 -0.579162 -2.23461 -0.0028866 -0.56085 0.827912 0 255 0 255 
-3.64011 -0.428255 -2.29965 -0.0278227 -0.73803 0.674195 0 255 0 255 
-2.42212 -0.527378 -2.21788 0.424095 0.631628 -0.648991 0 255 0 255 
-2.83892 1.21788 -1.77564 0.575344 0.732537 0.363825 0 255 0 255 
-2.23939 0.0702909 -1.55698 -0.097413 -0.982051 -0.161513 0 255 0 255 
-2.94485 -0.823719 -1.73892 0.107823 0.835826 -0.538302 0 255 0 255 
-1.47506 0.0384034 -1.936 0.762647 -0.0240961 -0.646367 0 255 0 255 
-0.851652 1.12858 -0.877174 0.0661165 0.910967 -0.407146 0 255 0 255 
-3.09568 1.2556 -1.88885 0.0904813 0.918275 -0.385466 0 255 0 255 
-1.55781 -0.304206 -1.7888 0.812438 -0.358897 -0.459497 0 255 0 255 
-2.86147 1.36664 -1.51649 -0.534967 0.389525 -0.749721 0 255 0 255 
-3.06588 -0.761347 -1.93456 -0.959146 0.0222724 0.282034 0 255 0 255 
-1.87715 -0.835861 -1.85698 0.825144 0.134169 -0.548758 0 255 0 255 
-2.27089 0.00803934 -1.5564 -0.097413 -0.982051 -0.161513 0 255 0 255 
-0.907235 1.21649 -0.966777 0.70191 0.667432 0.24871 0 255 0 255 
-6.42745 -0.14913 -3.13701 -0.410848 -0.910012 0.0555187 0 255 0 255 
-6.14851 1.13648 -2.8296 -0.020429 -0.821948 0.569196 0 255 0 255 
-5.6231 1.17934 -2.50296 -0.397509 0.573884 0.715991 0 255 0 255 
-7.35012 1.29545 -3.59716 -0.0291529 -0.997917 -0.0575499 0 255 0 255 
-7.22243 -1.06205 -3.86209 -0.424498 0.193827 0.884439 0 255 0 255 
-4.57634 0.481189 -2.06316 0.636617 0.466858 0.61381 0 255 0 255 
-8.53088 0.130302 -4.57684 -0.640303 -0.347743 0.684899 0 255 0 255 
-6.51821 -0.949387 -3.5252 -0.640625 0.45692 0.61711 0 255 0 255 
-6.10479 -0.859785 -3.23002 0.0338369 -0.722017 0.691047 0 255 0 255 
-9.738 -0.771549 -5.55515 -0.718066 0.220102 0.660255 0 255 0 255 
-4.70051 0.960944 -2.14938 -0.00152447 0.637987 0.770045 0 255 0 255 
-9.23131 -0.59669 -5.2151 -0.864188 0.145605 0.481641 0 255 0 255 
-5.15485 0.701174 -2.51377 -0.108006 -0.70051 0.705422 0 255 0 255 
-5.08558 0.813348 -2.467 0.0147148 -0.725704 0.68785 0 255 0 255 
-4.61672 0.900222 -2.15022 -0.0015243 0.637987 0.770045 0 255 0 255 
-12.5378 -1.37577 -7.59487 -0.223401 -0.570107 0.790614 0 255 0 255 
-4.69977 1.01714 -2.20936 0.0711355 0.406821 0.910734 0 255 0 255 
-6.47225 -0.217326 -3.49932 -0.53775 -0.630658 0.559549 0 255 0 255 
-3.57733 1.23056 -1.47529 -0.894178 -0.273391 0.354546 0 255 0 255 
-6.07714 -0.0471348 -3.23283 -0.152602 -0.877579 -0.454497 0 255 0 255 
-3.63041 -0.955253 -1.80593 0.0941806 0.930021 0.355233 0 255 0 255 
-0.974138 0.509457 0.103311 -0.115973 0.874272 -0.47138 0 255 0 255 
-7.0604 1.09425 -4.04649 -0.781067 0.36201 0.508805 0 255 0 255 
-3.76937 -0.971937 -2.0516 -0.329321 0.52012 0.78805 0 255 0 255 
-3.56322 -0.926607 -1.7325 -0.243314 0.634148 -0.733931 0 255 0 255 
-4.62223 1.10597 -2.24757 0.0711354 0.406821 0.910734 0 255 0 255 
-2.47667 1.48101 -0.979268 0.389768 -0.911768 0.129457 0 255 0 255 
-0.525272 0.248033 0.340576 -0.58241 -0.12736 -0.802856 0 255 0 255 
-3.81102 0.361005 -1.90903 -0.958615 0.198946 0.203662 0 255 0 255 
-3.499 0.8269 -1.67791 -0.703191 -0.0661726 0.707915 0 255 0 255 
-3.255 -0.845591 -1.70762 -0.530825 0.844195 -0.0745634 0 255 0 255 
-3.44262 1.35728 -1.62567 -0.804988 0.350979 0.478338 0 255 0 255 
-3.53686 -0.391339 -1.93192 -0.156354 -0.985065 0.0721088 0 255 0 255 
-3.63021 1.74738 -1.7649 -0.559814 0.181453 0.808507 0 255 0 255 
-3.32874 -0.386449 -2.03882 -0.672518 0.738369 -0.050302 0 255 0 255 
-0.880269 0.495542 0.104198 0.0872847 0.136393 -0.986802 0 255 0 255 
-3.71507 1.32165 -1.92982 0.569741 0.810547 0.135679 0 255 0 255 
-2.99693 1.16151 -1.43767 0.539419 0.785914 0.302269 0 255 0 255 
-3.72122 1.70787 -1.95015 -0.689684 0.0616902 0.721478 0 255 0 255 
-3.14525 -0.778246 -2.00002 -0.84329 -0.0347939 0.536332 0 255 0 255 
-3.61853 -0.334793 -2.11394 0.415738 -0.700329 0.580259 0 255 0 255 
-1.16827 0.705866 -0.376168 0.53911 0.279555 -0.794487 0 255 0 255 
-1.24535 0.703165 -0.447012 0.670753 0.364424 -0.645977 0 255 0 255 
-1.05536 1.03936 -0.613075 -0.481225 -0.564067 0.671007 0 255 0 255 
-2.19106 -0.583253 -2.14956 0.598754 0.272395 -0.75319 0 255 0 255 
-7.12165 -2.02835 -7.79243 0.23362 0.892695 0.385379 0 255 0 255 
-4.57574 -0.918926 -4.72904 -0.326183 0.896519 0.299765 0 255 0 255 
-1.12132 0.286162 -0.64787 0.686727 0.692218 -0.2219 0 255 0 255 
-1.11781 1.09249 -0.633579 -0.354391 -0.602152 -0.715416 0 255 0 255 
-1.0508 1.02503 -0.622132 -0.481225 -0.564067 0.671007 0 255 0 255 
-1.38231 -0.261949 -1.68347 0.345104 -0.859138 -0.37787 0 255 0 255 
-2.09981 -0.477926 -2.03165 0.896623 0.0342407 -0.441469 0 255 0 255 
-0.733656 0.987016 -0.596048 0.566822 -0.736845 -0.368474 0 255 0 255 
-1.45788 0.186826 -1.79314 0.847226 0.347658 -0.401675 0 255 0 255 
-1.64005 -0.805134 -1.45656 -0.525108 0.457738 0.717452 0 255 0 255 
-2.35831 0.0494327 -2.2922 0.661191 -0.607518 -0.440169 0 255 0 255 
-5.56556 0.84896 -2.55669 -0.605008 -0.777973 -0.169479 0 255 0 255 
-2.09819 -0.026626 -1.29948 -0.100172 -0.994122 -0.0410785 0 255 0 255 
-10.5457 -0.736723 -6.22605 -0.588176 0.0976419 0.802817 0 255 0 255 
-6.76686 -0.303186 -3.69093 0.967558 0.166753 -0.189801 0 255 0 255 
-5.04195 1.33372 -2.45717 -0.431556 0.144215 0.890484 0 255 0 255 
-3.27438 0.424601 -1.53129 -0.65287 -0.22229 0.724119 0 255 0 255 
-3.79686 0.780517 -1.88745 -0.773982 0.125545 0.620637 0 255 0 255 
-0.661607 0.483073 0.169029 0.701045 -0.532235 -0.474618 0 255 0 255 
-1.28717 0.472487 -0.603641 0.68185 0.0872034 -0.726276 0 255 0 255 
-0.969396 0.511906 0.107375 -0.115973 0.874272 -0.47138 0 255 0 255 
-2.63489 0.974942 -0.346416 -0.420097 -0.90663 -0.0392471 0 255 0 255 
-3.34924 -0.577636 -0.889552 0.00773359 0.430412 0.902599 0 255 0 255 
-3.00424 -0.2194 -0.68757 -0.988654 0.0129583 -0.149653 0 255 0 255 
-0.910838 0.494175 0.353167 0.0157439 0.71872 -0.695122 0 255 0 255 
-4.35353 -0.690798 -1.43077 -0.0913807 0.992816 -0.0772382 0 255 0 255 
-6.19618 -0.824021 -2.37997 -0.472164 0.0495569 0.880117 0 255 0 255 
-2.7485 0.767984 -0.527074 -0.085703 0.753722 0.651581 0 255 0 255 
-4.33222 -0.129245 -1.42232 -0.00306908 0.445269 0.895392 0 255 0 255 
-3.05376 0.197518 -0.757136 -0.802233 -0.0812483 0.591457 0 255 0 255 
-4.78551 0.227774 -1.6463 0.756966 0.285962 0.58756 0 255 0 255 
-3.24169 0.5478 -0.839571 -0.570216 0.0918133 0.816348 0 255 0 255 
-3.21145 0.832798 -0.783072 -0.699171 -0.105249 0.707165 0 255 0 255 
-2.38747 0.701683 -0.393896 0.515997 -0.179237 -0.837629 0 255 0 255 
-3.62649 0.445259 -1.0481 -0.55291 -0.00189275 0.833239 0 255 0 255 
-2.80125 0.338666 -0.64057 -0.549567 -0.260475 0.793807 0 255 0 255 
-6.64169 -0.896857 -2.72222 -0.52377 0.317032 0.790668 0 255 0 255 
-5.88894 -0.210615 -2.27116 0.311652 -0.88394 -0.348601 0 255 0 255 
-2.26201 0.7008 -0.350042 0.520991 0.000390969 -0.853562 0 255 0 255 
-2.29558 0.842033 -0.353556 0.592974 0.251648 -0.764889 0 255 0 255 
-3.55287 0.999234 -1.00607 0.564457 0.432622 0.703013 0 255 0 255 
-2.26714 0.600302 -0.364947 0.38242 0.222044 -0.896912 0 255 0 255 
-5.96088 0.108737 -2.36552 -0.790246 0.0803295 0.607502 0 255 0 255 
-2.5261 0.908625 -0.495909 -0.57262 -0.719292 0.393352 0 255 0 255 
-3.82213 0.703427 -1.20197 -0.568136 -0.0421223 0.821856 0 255 0 255 
-3.54026 -0.176685 -0.987494 -0.375106 -0.0249258 -0.926647 0 255 0 255 
-6.14629 -0.599923 -2.64052 -0.391538 -0.11201 0.913319 0 255 0 255 
-6.60391 0.277903 -2.80448 -0.761245 -0.341417 0.551307 0 255 0 255 
-2.62187 1.19199 -0.560354 -0.991515 -0.129505 0.0112909 0 255 0 255 
-8.46132 -0.230268 -3.86704 -0.787416 0.091614 0.609576 0 255 0 255 
-1.13497 0.389761 0.153381 -0.91227 0.370245 -0.175163 0 255 0 255 
-2.16903 0.580612 -0.393843 0.634049 0.271942 -0.723899 0 255 0 255 
-7.068 0.585228 -3.09433 -0.544258 0.291375 0.786692 0 255 0 255 
-6.94994 0.46254 -3.08587 -0.534395 0.274907 0.79928 0 255 0 255 
-2.77079 0.752321 -0.576634 -0.0857031 0.753722 0.651581 0 255 0 255 
-6.68255 -0.786384 -3.09517 -0.083579 -0.990544 0.1088 0 255 0 255 
-2.87768 0.431565 -0.683535 -0.282612 -0.439679 0.852533 0 255 0 255 
-2.33972 0.722375 -0.374384 0.761046 -0.00642906 -0.648666 0 255 0 255 
-2.55286 -0.176822 -0.695454 -0.184458 0.110201 -0.976643 0 255 0 255 
-7.23904 -0.954488 -3.07845 -0.482295 -0.764655 0.427426 0 255 0 255 
-6.21829 0.239641 -2.43271 -0.606048 0.10699 0.7882 0 255 0 255 
-7.72141 -0.679747 -3.7239 -0.127823 0.43454 0.891536 0 255 0 255 
-1.89398 -0.257478 -0.328178 0.88037 0.322819 0.347471 0 255 0 255 
-7.71018 0.233809 -3.69424 -0.58711 -0.263175 0.765533 0 255 0 255 
-5.66573 -0.728823 -2.5999 -0.405538 0.103335 0.908218 0 255 0 255 
-3.41767 0.91844 -0.960098 -0.0982394 0.584861 0.805162 0 255 0 255 
-6.14747 1.36727 -2.7114 -0.0975371 0.555497 0.825778 0 255 0 255 
-6.76043 0.191248 -2.7856 0.885269 0.437908 0.156638 0 255 0 255 
-8.94139 -1.08989 -4.63443 -0.0593852 0.768212 0.637435 0 255 0 255 
-14.5996 -1.45273 -8.09389 -0.0619694 -0.99228 0.107423 0 255 0 255 
-3.62125 -0.362998 -1.45617 0.100224 -0.705477 0.70161 0 255 0 255 
-2.33903 0.840152 -0.427359 0.758228 0.0741582 -0.647758 0 255 0 255 
-7.17122 -0.697172 -3.18484 -0.590062 -0.696075 0.40903 0 255 0 255 
-2.32579 0.780195 -0.439337 0.84375 -0.141271 -0.51781 0 255 0 255 
-5.33684 -0.0568893 -2.20289 -0.441117 -0.722916 -0.531798 0 255 0 255 
-2.40274 0.749819 -0.520987 0.560874 -0.440679 -0.700873 0 255 0 255 
-7.46275 0.405905 -3.39936 -0.592293 0.0180622 0.80552 0 255 0 255 
-4.85969 -0.332119 -2.05417 -0.892829 0.0736017 0.444341 0 255 0 255 
-4.92287 0.76151 -1.93522 -0.033356 0.265139 0.963633 0 255 0 255 
-5.93779 0.429165 -2.61889 -0.700019 0.270192 0.661037 0 255 0 255 
-6.02267 0.0633803 -2.7303 -0.903822 -0.39903 0.154536 0 255 0 255 
-5.49267 1.43759 -2.74052 -0.177095 -0.204413 0.962732 0 255 0 255 
-6.76706 0.180675 -3.6797 -0.490419 0.0415356 0.870496 0 255 0 255 
-4.72885 -0.273785 -2.06552 -0.479486 0.823799 0.302406 0 255 0 255 
-8.39512 -1.19263 -4.32279 -0.285613 0.93412 -0.214113 0 255 0 255 
-6.02701 1.21515 -2.6947 -0.0269779 0.319939 0.947054 0 255 0 255 
-3.43082 -0.345118 -1.33535 -0.505925 0.847579 -0.160158 0 255 0 255 
-4.30282 -0.252555 -1.93108 -0.927317 -0.260259 0.268977 0 255 0 255 
-4.3484 0.472569 -1.88205 0.0506738 0.532081 0.845176 0 255 0 255 
-5.67176 2.38904 -2.95778 -0.393391 0.248563 0.885133 0 255 0 255 
-4.41407 1.88879 -2.17661 -0.536579 -0.721859 0.437039 0 255 0 255 
-8.92326 -1.07482 -4.99065 -0.214395 0.614598 0.759147 0 255 0 255 
-4.37127 0.35121 -2.35225 -0.0343114 -0.741643 0.669916 0 255 0 255 
-7.9195 -0.515906 -4.35463 0.62921 -0.297994 0.71784 0 255 0 255 
-7.8618 0.189431 -4.3633 -0.558816 -0.0356392 0.828526 0 255 0 255 
-5.22265 0.662053 -2.60509 -0.308275 -0.841393 0.443874 0 255 0 255 
-5.04825 0.826014 -2.47749 0.0147148 -0.725704 0.68785 0 255 0 255 
-4.97364 1.06089 -2.43096 -0.556525 -0.107614 0.823832 0 255 0 255 
-3.75044 1.64101 -1.88321 -0.370652 -0.0470342 0.92758 0 255 0 255 
-3.72684 1.87683 -1.96395 -0.24664 0.834952 0.491959 0 255 0 255 
-8.14508 -0.997288 -4.41947 -0.905905 0.336441 0.257184 0 255 0 255 
-4.33107 1.82404 -2.22583 -0.39695 -0.700118 0.593519 0 255 0 255 
-2.84467 0.085741 -2.12379 -0.0868301 -0.981607 0.170027 0 255 0 255 
-4.35866 1.55697 -2.47075 0.214355 -0.226825 0.950054 0 255 0 255 
-2.59649 0.074589 -1.93563 0.386311 -0.914075 0.123413 0 255 0 255 
-1.16264 0.735767 -0.374653 0.53911 0.279555 -0.794487 0 255 0 255 
-0.592972 0.522087 0.0257238 -0.533337 -0.7228 -0.439445 0 255 0 255 
-0.574171 0.47113 0.0714274 -0.681632 -0.601047 -0.417278 0 255 0 255 
-1.07526 1.09602 -0.715887 -0.395378 -0.655041 -0.643893 0 255 0 255 
-2.28244 0.0950663 -2.15752 0.550127 0.692516 -0.46667 0 255 0 255 
-1.04558 0.498471 0.0955771 -0.0146844 0.0862817 -0.996163 0 255 0 255 
-3.08814 0.00574197 -0.767811 -0.545251 0.30116 0.782307 0 255 0 255 
-4.66511 1.92932 -2.13837 -0.336804 -0.315117 0.887279 0 255 0 255 
-0.941342 0.472013 0.438718 -0.218548 -0.967619 -0.126297 0 255 0 255 
-18.0417 -2.21555 -6.31824 0.290967 -0.943299 0.159767 0 255 0 255 
-0.958508 0.459731 0.448954 -0.120863 -0.797931 -0.590506 0 255 0 255 
-1.04206 0.485291 0.410898 -0.0100197 -0.511318 0.859333 0 255 0 255 
-0.975217 0.489077 0.425046 -0.463458 -0.853398 -0.238575 0 255 0 255 
-2.40689 0.487896 -0.125519 0.333039 -0.489892 -0.805662 0 255 0 255 
-0.997567 0.490329 0.415534 -0.614882 0.711768 -0.339568 0 255 0 255 
-4.19424 0.284646 -0.843592 0.235401 -0.915642 0.325863 0 255 0 255 
-3.97036 -0.792533 -0.923917 -0.811465 0.288903 0.507995 0 255 0 255 
-3.99578 -0.748339 -0.930398 -0.811465 0.288903 0.507995 0 255 0 255 
-2.52641 0.499152 -0.204127 0.360712 -0.459903 -0.811404 0 255 0 255 
-2.28876 0.518308 -0.104165 0.240135 -0.440634 -0.864972 0 255 0 255 
-2.39854 0.641123 -0.134109 0.23804 -0.161364 -0.957757 0 255 0 255 
-3.38676 -0.551434 -0.676973 -0.516723 0.852015 -0.0840725 0 255 0 255 
-2.46543 0.753552 -0.15627 0.130912 -0.146864 -0.980456 0 255 0 255 
-1.00006 0.457342 0.414302 -0.578688 -0.805302 0.128878 0 255 0 255 
-2.35093 0.491741 -0.141778 0.299588 -0.27524 -0.913504 0 255 0 255 
-2.13825 0.603139 -0.0843617 0.829033 -0.241509 -0.504358 0 255 0 255 
-2.38597 0.831755 -0.162239 -0.361328 -0.437147 -0.823617 0 255 0 255 
-0.876347 0.260536 0.401985 0.144281 -0.459495 -0.876383 0 255 0 255 
-0.974115 0.310469 0.367302 -0.0971617 -0.34056 -0.935189 0 255 0 255 
-3.30449 0.272355 -0.631178 -0.524556 0.468472 0.710897 0 255 0 255 
-2.74634 0.547742 -0.362062 -0.127701 0.76386 0.632622 0 255 0 255 
-2.73869 0.687097 -0.346833 -0.130549 0.742999 0.656437 0 255 0 255 
-0.973649 0.406424 0.367249 0.285706 0.464465 -0.838239 0 255 0 255 
-0.984914 0.454967 0.380776 -0.63887 -0.0736253 -0.765783 0 255 0 255 
-1.0631 0.55946 0.343297 -0.336039 -0.924658 0.179123 0 255 0 255 
-2.27998 0.697818 -0.160132 0.382092 0.0607837 -0.922123 0 255 0 255 
-3.09839 -0.832484 -0.718172 -0.00604465 -0.0739874 0.997241 0 255 0 255 
-3.06439 -0.949792 -0.724894 0.0275983 -0.0340793 0.999038 0 255 0 255 
-0.950529 0.473437 0.363434 0.120011 0.237326 -0.963989 0 255 0 255 
-3.18416 -0.867804 -0.790295 0.119514 0.0868363 0.989028 0 255 0 255 
-2.97106 0.777183 -0.52319 0.0283705 0.711165 0.702452 0 255 0 255 
-0.922786 0.489214 0.366868 -0.341317 -0.92073 -0.189101 0 255 0 255 
-3.70644 -0.376192 -1.07776 -0.888694 0.402188 0.220155 0 255 0 255 
-0.882352 0.320247 0.398796 0.48179 -0.126941 -0.867043 0 255 0 255 
-2.56994 0.957424 -0.426463 -0.906197 -0.187428 -0.379049 0 255 0 255 
-2.37648 0.736618 -0.222648 -0.849498 0.360773 -0.384963 0 255 0 255 
-3.43038 0.647535 -0.939276 -0.170878 0.259014 0.950638 0 255 0 255 
-0.852547 0.301591 0.385235 0.434004 0.0622487 -0.898758 0 255 0 255 
-3.47483 0.782006 -0.963984 -0.4646 0.0921466 0.880713 0 255 0 255 
-2.52486 0.925146 -0.321053 -0.420097 -0.90663 -0.0392471 0 255 0 255 
-3.05712 0.790379 -0.569447 -0.0789692 0.777321 0.624128 0 255 0 255 
-0.98605 0.548576 0.346727 -0.380916 -0.539134 -0.751157 0 255 0 255 
-3.27924 0.740721 -0.905085 -0.436377 0.126863 0.890775 0 255 0 255 
-7.23577 -0.203458 -3.10558 -0.866238 -0.0228391 0.499109 0 255 0 255 
-6.10666 0.307131 -2.4816 -0.606048 0.10699 0.7882 0 255 0 255 
-6.75808 0.484377 -2.83613 -0.498091 0.281987 0.819993 0 255 0 255 
-3.14312 -0.273199 -0.795567 -0.61582 -0.229797 -0.753631 0 255 0 255 
-5.89228 1.01486 -2.35909 -0.109498 0.428402 0.896929 0 255 0 255 
-2.30167 0.785864 -0.443496 0.84375 -0.141271 -0.51781 0 255 0 255 
-3.30226 0.593319 -0.81556 -0.246706 0.12244 0.961325 0 255 0 255 
-6.19289 0.993872 -2.61316 -0.0809326 0.502001 0.861072 0 255 0 255 
-6.95052 0.877776 -3.07201 -0.481014 0.000813222 0.876713 0 255 0 255 
-8.03145 -0.683367 -3.82285 0.327401 0.282833 0.901562 0 255 0 255 
-3.54999 -0.207843 -1.26129 -0.87164 0.0325467 -0.489066 0 255 0 255 
-3.45948 0.171355 -0.982853 -0.822968 0.386637 0.416215 0 255 0 255 
-6.51857 0.880124 -2.86103 -0.60625 0.281967 0.74361 0 255 0 255 
-6.9356 0.850353 -3.19684 -0.481014 0.000813093 0.876712 0 255 0 255 
-5.91943 0.919604 -2.60703 -0.0343626 0.661972 0.74874 0 255 0 255 
-5.78355 0.935681 -2.58001 -0.0393756 0.28622 0.957355 0 255 0 255 
-2.3524 0.629396 -0.448471 0.739525 -0.0509694 -0.671197 0 255 0 255 
-7.32537 0.176326 -3.74075 -0.326782 -0.675097 0.661406 0 255 0 255 
-4.64306 0.659624 -2.11943 -0.0219954 0.448333 0.893596 0 255 0 255 
-4.79054 0.876214 -2.22155 -0.114841 0.668597 0.734704 0 255 0 255 
-1.10877 0.524312 0.0850747 -0.402635 0.650829 -0.643667 0 255 0 255 
-2.67578 0.97828 -0.894655 -0.913962 0.4056 0.0127097 0 255 0 255 
-8.43318 4.32486 -4.46796 -0.529021 0.0174862 0.848429 0 255 0 255 
-4.92662 2.2053 -2.31635 -0.634067 -0.234921 0.73673 0 255 0 255 
-11.4772 -1.19476 -6.11845 -0.197654 -0.928892 0.313199 0 255 0 255 
-6.94109 -1.09108 -3.66634 -0.402773 -0.736047 0.544066 0 255 0 255 
-4.45335 0.77528 -1.94461 -0.0219953 0.448333 0.893596 0 255 0 255 
-3.40786 0.401925 -1.64235 -0.06258 -0.068732 0.99567 0 255 0 255 
-3.63023 1.42567 -1.78906 -0.858354 -0.160293 0.487376 0 255 0 255 
-3.88023 0.321025 -2.04188 -0.49646 0.814852 0.29924 0 255 0 255 
-4.08019 1.66649 -1.80345 -0.315872 -0.162893 0.934714 0 255 0 255 
-3.7899 -0.45777 -2.08908 -0.00512605 -0.850829 0.525417 0 255 0 255 
-3.91583 -0.364299 -2.19415 0.177629 -0.977592 0.112973 0 255 0 255 
-3.38016 -0.345282 -1.83995 -0.406103 0.897814 -0.170326 0 255 0 255 
-3.43166 1.26491 -2.01126 0.19459 0.950435 -0.242504 0 255 0 255 
-5.42385 0.706976 -2.52758 -0.377158 -0.718093 0.584888 0 255 0 255 
-4.05055 -0.497697 -2.47748 0.219722 -0.95713 -0.188745 0 255 0 255 
-1.14534 0.688513 -0.316798 0.808773 0.25911 -0.527967 0 255 0 255 
-1.20832 0.647914 -0.43079 0.0206859 0.758871 -0.650912 0 255 0 255 
-8.04228 -1.86341 -7.29975 0.123252 0.960792 -0.248369 0 255 0 255 
-1.41057 0.826251 -0.867544 0.112047 -0.919425 0.376965 0 255 0 255 
-2.55914 0.71817 -1.89316 0.830508 0.307823 0.464221 0 255 0 255 
-2.14598 0.216565 -1.86645 0.363245 0.450327 -0.815634 0 255 0 255 
-0.58943 0.514692 0.0077796 -0.44764 -0.623458 -0.641029 0 255 0 255 
-1.29247 0.102003 -0.862008 0.0438891 0.717915 -0.694746 0 255 0 255 
-2.28215 0.240899 -2.0464 0.558448 0.732184 -0.389927 0 255 0 255 
-2.4339 0.308899 -2.6159 0.769869 -0.56034 0.305485 0 255 0 255 
-2.11951 -0.572969 -2.15913 0.598754 0.272395 -0.75319 0 255 0 255 
-6.71381 0.963519 -3.09763 -0.468168 -0.0676569 0.881046 0 255 0 255 
-4.39592 1.8497 -2.05602 -0.39695 -0.700119 0.593519 0 255 0 255 
-3.48042 0.912158 -1.60819 -0.884716 0.141465 0.444145 0 255 0 255 
-1.31126 0.289519 -0.688453 0.446888 0.466776 -0.763159 0 255 0 255 
-0.903521 0.310657 0.353444 0.138625 -0.503502 -0.852801 0 255 0 255 
-0.990967 0.567948 0.318316 0.305396 -0.651741 -0.694238 0 255 0 255 
-6.81474 -0.0280454 -3.51793 0.0392559 -0.873281 -0.485633 0 255 0 255 
-1.51775 -0.526828 -0.741382 0.764556 -0.503354 0.402604 0 255 0 255 
-3.1056 0.181587 -2.44562 -0.23894 -0.963348 0.121933 0 255 0 255 
-3.48798 -0.991053 -0.725448 -0.122864 -0.126434 0.984337 0 255 0 255 
-3.91999 -1.00126 -0.906068 -0.322659 0.108061 0.940327 0 255 0 255 
-2.2281 0.738617 -0.0594536 0.380584 0.0244336 -0.924424 0 255 0 255 
-2.43012 0.918473 -0.270916 -0.574646 -0.704148 -0.417083 0 255 0 255 
-3.21372 -0.578698 -0.835118 0.0517619 0.0708387 0.996144 0 255 0 255 
-4.15009 -0.0435567 -1.33073 -0.036251 -0.714869 0.698318 0 255 0 255 
-1.07582 0.352333 -0.350258 0.773463 0.125613 -0.62127 0 255 0 255 
-4.39417 0.835571 -0.308127 -0.0786446 0.281297 0.956393 0 255 0 255 
-1.59098 0.51148 0.381198 -0.361815 -0.915965 -0.17349 0 255 0 255 
-0.98405 0.534528 0.441229 -0.75504 -0.652785 0.0615372 0 255 0 255 
-2.71446 0.629005 0.119289 -0.340499 -0.707031 -0.619812 0 255 0 255 
-1.01613 0.536746 0.447778 -0.832741 -0.546875 -0.0864337 0 255 0 255 
-1.57138 0.533887 0.267129 -0.0409421 -0.991709 0.12181 0 255 0 255 
-0.887028 0.350183 0.589028 -0.991701 -0.0570758 -0.115199 0 255 0 255 
-1.00029 0.506566 0.461246 -0.861641 -0.507113 0.0202991 0 255 0 255 
-1.58477 0.531108 0.259528 -0.731836 -0.656803 0.181732 0 255 0 255 
-3.85497 0.851593 -0.112397 -0.123031 -0.420161 0.899071 0 255 0 255 
-1.00363 0.509947 0.43818 -0.573315 -0.406126 0.711598 0 255 0 255 
-4.50314 -1.26929 -4.04504 -0.347801 0.752856 0.558786 0 255 0 255 
-13.2565 -1.5343 -6.93296 -0.168681 -0.806344 0.566883 0 255 0 255 
-8.39143 -1.15541 -4.36355 -0.716119 -0.0599819 0.695396 0 255 0 255 
-2.48316 0.607946 0.071605 0.323786 -0.769408 -0.550612 0 255 0 255 
-1.0899 0.534468 0.548598 -0.280437 -0.952484 0.118863 0 255 0 255 
-1.195 0.528939 0.470872 0.628603 0.502822 -0.593319 0 255 0 255 
-2.7659 0.56449 0.0924108 -0.727704 -0.63687 0.254644 0 255 0 255 
-5.47987 -0.802191 -0.950018 -0.356712 -0.474748 -0.804594 0 255 0 255 
-1.32689 0.506833 0.380409 -0.312347 -0.749282 0.583965 0 255 0 255 
-2.71861 0.588344 0.136489 -0.218461 -0.697124 -0.682857 0 255 0 255 
-2.56625 0.505089 0.0767442 -0.0489807 -0.908344 -0.415346 0 255 0 255 
-1.1494 0.478709 0.416909 0.834866 0.400052 0.378097 0 255 0 255 
-2.57332 0.591238 0.0468831 0.497558 -0.806627 -0.319043 0 255 0 255 
-3.84175 -0.665893 -0.845105 -0.509703 0.276803 0.814606 0 255 0 255 
-1.04185 0.571967 0.476363 -0.731546 -0.529395 -0.42963 0 255 0 255 
-2.48192 0.545356 0.0507755 0.49209 -0.0848783 -0.866397 0 255 0 255 
-2.53441 0.625601 0.0018791 0.371045 -0.386897 -0.844178 0 255 0 255 
-2.57071 0.541322 0.0432216 0.497558 -0.806627 -0.319043 0 255 0 255 
-2.59522 -0.83078 -1.91486 -0.406483 -0.284466 -0.868246 0 255 0 255 
-4.12189 0.219643 -0.248656 0.0236515 -0.934481 -0.355226 0 255 0 255 
-1.10802 0.549786 0.421504 0.757602 -0.588756 -0.281789 0 255 0 255 
-1.31477 0.567105 0.38941 0.420273 -0.883934 0.205017 0 255 0 255 
-5.1878 0.115635 -0.87498 -0.464141 -0.659774 0.590991 0 255 0 255 
-1.03216 0.570395 0.473008 -0.755936 -0.429841 -0.493758 0 255 0 255 
-1.29614 0.525424 0.402707 -0.0598417 0.177034 0.982384 0 255 0 255 
-2.51969 0.390636 -0.0537142 0.803871 0.589647 0.0781543 0 255 0 255 
-0.848216 0.515136 0.468764 0.863443 -0.346427 0.36668 0 255 0 255 
-3.43597 -0.538421 -0.688434 -0.505558 0.750208 0.426144 0 255 0 255 
-1.10855 0.560679 0.415906 -0.292513 -0.949863 0.110434 0 255 0 255 
-5.55724 -1.36565 -0.957336 -0.146424 -0.877194 0.457265 0 255 0 255 
-1.19792 0.532093 0.384016 -0.751274 0.640897 0.157602 0 255 0 255 
-2.79487 0.323087 -0.00763142 0.280627 0.430904 -0.857654 0 255 0 255 
-2.19486 0.462295 0.0912038 0.727565 -0.600724 -0.331331 0 255 0 255 
-4.31109 0.0398062 -0.559727 -0.569105 -0.577103 0.585723 0 255 0 255 
-1.19751 0.508271 0.394099 -0.787616 0.501121 0.358523 0 255 0 255 
-3.87486 -1.03717 -0.874608 0.0101515 0.604258 0.796724 0 255 0 255 
-3.51893 -0.629276 -0.717255 -0.229786 0.234517 0.944563 0 255 0 255 
-4.39155 0.218016 -0.443979 0.295238 -0.89487 -0.334728 0 255 0 255 
-2.35406 0.254762 -0.000443339 0.0480033 -0.717923 -0.694466 0 255 0 255 
-2.24784 0.266326 -0.00664049 -0.398171 0.890251 -0.221162 0 255 0 255 
-2.52937 0.307238 0.0999941 -0.259066 0.249367 -0.933114 0 255 0 255 
-14.1331 -1.6914 -4.28839 0.169104 -0.983711 -0.0609607 0 255 0 255 
-2.98034 0.504885 0.00711197 0.21496 -0.754288 0.620356 0 255 0 255 
-2.63393 0.259096 0.0292374 0.0391329 -0.677997 -0.734023 0 255 0 255 
-2.62323 0.268421 -0.0671559 0.0261152 -0.81853 -0.573869 0 255 0 255 
-6.91021 0.200922 -1.57086 0.456901 -0.885004 -0.0894986 0 255 0 255 
-4.71701 0.220943 -0.683686 0.00651059 0.187963 0.982154 0 255 0 255 
-4.80283 0.0156776 -0.563355 0.149515 -0.252627 0.955942 0 255 0 255 
-11.9873 -1.52385 -3.4696 0.0353893 -0.991311 -0.126688 0 255 0 255 
-4.82854 0.133944 -0.570284 0.0617403 0.110391 0.991969 0 255 0 255 
-3.95722 0.13412 -0.204168 -0.312515 -0.926521 -0.209508 0 255 0 255 
-2.37703 0.39805 -0.0343878 0.41662 -0.885614 -0.205223 0 255 0 255 
-2.38608 0.390693 0.0503675 0.453486 0.731105 -0.509741 0 255 0 255 
-2.44893 0.332253 -0.0171506 0.685581 0.560167 -0.464964 0 255 0 255 
-4.7793 -0.183367 -0.706504 0.0968584 -0.789405 0.606183 0 255 0 255 
-4.48886 -0.626005 -0.613652 -0.628603 0.502265 0.593791 0 255 0 255 
-3.19696 -0.475456 -0.596407 -0.629253 0.738343 -0.242673 0 255 0 255 
-4.39988 -0.518157 -1.45149 -0.810122 0.274608 -0.517971 0 255 0 255 
-2.44718 0.353856 0.0325112 0.204925 -0.965543 -0.160415 0 255 0 255 
-0.916983 0.309743 0.384708 0.112057 -0.576381 -0.809462 0 255 0 255 
-3.70546 0.422957 -1.12793 -0.739397 -0.100745 0.66569 0 255 0 255 
-4.55095 1.09408 -2.23595 -0.382922 0.49788 0.77813 0 255 0 255 
-4.04024 0.150301 -1.20739 -0.439367 -0.262105 0.859219 0 255 0 255 
-3.14322 0.237637 -0.538086 0.128996 0.239788 0.962217 0 255 0 255 
-3.02273 0.430056 -0.697568 -0.182816 0.424316 0.886868 0 255 0 255 
-3.2392 0.546598 -0.798309 -0.42842 0.204635 0.880103 0 255 0 255 
-3.20897 0.378106 -0.780271 -0.516889 0.347346 0.782417 0 255 0 255 
-7.21286 1.22481 -3.01778 -0.567416 0.0457665 0.822159 0 255 0 255 
-4.10315 0.230798 -1.29737 -0.714216 -0.444141 0.540957 0 255 0 255 
-2.12255 0.974734 -0.358891 0.456533 -0.213912 -0.863608 0 255 0 255 
-1.10714 0.559144 0.325245 -0.707699 -0.270117 0.65284 0 255 0 255 
-0.922922 0.589173 0.380397 0.597226 0.412499 -0.68787 0 255 0 255 
-2.50587 0.716449 -0.479666 0.514391 -0.0549956 -0.855791 0 255 0 255 
-1.05498 0.480316 0.351552 0.0195306 0.890831 0.453915 0 255 0 255 
-1.00457 0.449358 0.426984 -0.417573 -0.801331 0.42837 0 255 0 255 
-1.01249 0.525141 0.365561 -0.489634 -0.506985 -0.709383 0 255 0 255 
-1.10233 0.585141 0.363893 -0.561333 -0.823057 -0.0865019 0 255 0 255 
-2.44361 1.11733 -0.527051 -0.369194 -0.670182 -0.643857 0 255 0 255 
-2.27893 0.989579 -0.425723 0.403342 -0.751441 -0.522161 0 255 0 255 
-3.06169 0.830126 -2.41893 -0.4724 -0.17799 0.863225 0 255 0 255 
-2.74461 1.25376 -2.01023 0.0552064 0.922075 -0.383053 0 255 0 255 
-1.21836 1.0299 -0.577499 -0.33116 -0.242797 -0.911802 0 255 0 255 
-1.29283 0.761996 -0.489669 0.881883 -0.291568 -0.370501 0 255 0 255 
-0.878599 0.502392 0.0881434 0.0872847 0.136393 -0.986802 0 255 0 255 
-0.844854 0.484849 0.111285 0.17957 -0.0290308 -0.983317 0 255 0 255 
-0.644092 0.491087 0.119187 -0.549555 -0.748058 -0.37202 0 255 0 255 
-3.69862 0.634204 -1.72468 -0.619883 -0.108678 0.777132 0 255 0 255 
-5.7044 1.22692 -2.69711 -0.0321151 0.406714 0.912991 0 255 0 255 
-5.00815 -0.356534 -1.86721 -0.00139943 -0.950533 0.310619 0 255 0 255 
-1.0941 0.546142 0.341622 -0.707699 -0.270117 0.65284 0 255 0 255 
-2.52979 0.537424 -0.232684 0.536279 -0.183475 -0.823857 0 255 0 255 
-6.09496 0.943155 -3.2126 -0.0189701 -0.963272 0.267855 0 255 0 255 
-3.13843 0.459926 -0.741758 -0.218676 0.483607 0.847529 0 255 0 255 
-3.34928 0.414658 -0.855067 -0.600565 0.255301 0.757722 0 255 0 255 
-3.16155 0.207698 -2.06277 -0.986197 -0.0847725 0.142228 0 255 0 255 
-3.59259 1.23918 -1.90719 0.45438 0.870632 -0.188518 0 255 0 255 
-1.12775 0.498607 0.314501 -0.439978 0.315878 0.840619 0 255 0 255 
-2.7484 1.22115 -1.91735 0.0552064 0.922075 -0.383053 0 255 0 255 
-1.63903 0.553364 0.21282 -0.731836 -0.656803 0.181732 0 255 0 255 
-7.64267 1.15064 -4.33905 -0.589799 0.391827 0.706122 0 255 0 255 
-2.99763 1.28838 -2.11084 -0.0437065 0.955401 0.292059 0 255 0 255 
-6.42232 0.109613 -3.5542 0.0368752 -0.936696 -0.348198 0 255 0 255 
-3.5219 0.991113 -0.907775 -0.0982395 0.584861 0.805162 0 255 0 255 
-5.89799 1.10857 -2.67519 -0.275889 0.480218 0.832632 0 255 0 255 
-2.48457 0.426269 -0.149267 0.238812 -0.677836 -0.695347 0 255 0 255 
-3.37125 0.311503 -0.910905 -0.84527 0.333902 0.417166 0 255 0 255 
-3.10739 -0.42278 -1.84695 -0.709281 -0.403453 -0.578054 0 255 0 255 
-2.20898 1.22028 -1.02828 -0.154546 -0.986581 0.0526578 0 255 0 255 
-2.59449 1.252 -0.679002 -0.520711 -0.377683 0.765647 0 255 0 255 
-2.49061 0.408013 -0.17362 0.238812 -0.677836 -0.695347 0 255 0 255 
-2.36371 0.781315 -0.539137 0.560874 -0.440679 -0.700873 0 255 0 255 
-4.13306 -0.242392 -1.67819 -0.719862 -0.29678 0.627472 0 255 0 255 
-3.46857 0.720098 -0.764006 -0.436377 0.126863 0.890775 0 255 0 255 
-5.57131 0.865327 -2.99305 -0.579733 -0.701641 0.414258 0 255 0 255 
-5.03044 1.18211 -2.13931 0.0135929 0.653311 0.756968 0 255 0 255 
-7.3926 3.27982 -4.26378 -0.502076 -0.0352825 0.864103 0 255 0 255 
-2.41568 0.435053 -0.116791 0.349237 -0.646553 -0.678235 0 255 0 255 
-8.99988 4.69381 -4.65776 -0.401814 0.0517458 0.914258 0 255 0 255 
-6.27276 3.04792 -3.27418 -0.398798 0.279219 0.873497 0 255 0 255 
-3.86551 1.27745 -1.62266 -0.931198 0.320249 0.1741 0 255 0 255 
-3.41366 1.34245 -1.22873 -0.236329 0.831928 0.50204 0 255 0 255 
-3.39039 1.17035 -1.22913 0.117293 0.838431 0.532237 0 255 0 255 
-2.27029 0.277383 -0.0474722 0.54991 -0.356885 -0.755137 0 255 0 255 
-6.6677 0.810446 -3.80307 -0.655848 -0.64035 0.399768 0 255 0 255 
-3.41044 0.168039 -0.639135 -0.101193 -0.226713 0.968691 0 255 0 255 
-2.1649 1.2497 -0.705304 0.251769 -0.915319 -0.314331 0 255 0 255 
-1.2143 0.887134 -0.424301 0.875083 -0.194223 -0.443291 0 255 0 255 
-5.18846 2.33035 -2.62835 -0.590489 0.0792261 0.803147 0 255 0 255 
-4.79826 0.502364 -2.66325 -0.347574 -0.304468 0.886844 0 255 0 255 
-2.13084 0.673704 -0.0135412 -0.948172 -0.304579 -0.0905587 0 255 0 255 
-2.46488 0.786015 -0.536808 0.35361 -0.0857073 -0.931458 0 255 0 255 
-1.28533 0.641402 -0.420498 0.506399 0.444356 -0.738991 0 255 0 255 
-1.32245 1.04134 -0.58003 -0.387135 -0.218818 -0.895681 0 255 0 255 
-3.67473 0.538263 -1.07725 -0.558681 0.0039336 0.829374 0 255 0 255 
-3.53607 1.30899 -1.57062 -0.477495 0.82691 0.297016 0 255 0 255 
-3.96394 -0.763156 -0.956936 -0.811465 0.288903 0.507995 0 255 0 255 
-1.06918 0.528481 0.32647 -0.683593 -0.205552 0.70032 0 255 0 255 
-1.3741 0.675423 -0.479734 0.913349 -0.161342 -0.373848 0 255 0 255 
-5.26428 0.879704 -2.18646 0.388101 -0.849556 0.357256 0 255 0 255 
-2.65634 0.574932 -0.28784 0.477747 0.859537 0.181534 0 255 0 255 
-3.38024 0.567073 -0.0560992 -0.0201833 -0.138917 0.990098 0 255 0 255 
-4.902 -0.758423 -0.774848 -0.759916 0.338291 0.555056 0 255 0 255 
-5.01398 -0.742053 -0.699151 0.186196 -0.857678 -0.479291 0 255 0 255 
-4.92164 0.107705 -0.664363 0.0617403 0.110391 0.991969 0 255 0 255 
-2.90992 0.626401 -0.43456 -0.0698705 0.695109 0.715501 0 255 0 255 
-3.54527 0.579005 0.0425051 -0.0691725 -0.655375 0.75213 0 255 0 255 
-3.81514 0.572206 -0.117995 0.369062 0.505894 0.779657 0 255 0 255 
-4.86526 0.776643 -0.129576 0.0781282 0.30422 0.949392 0 255 0 255 
-15.0735 -1.47053 -7.42017 0.0335018 -0.993573 -0.108123 0 255 0 255 
-2.47411 0.385588 -0.0990934 0.332386 -0.695548 -0.636971 0 255 0 255 
-4.33817 0.780086 -0.115249 -0.177615 0.545336 0.819184 0 255 0 255 
-4.14013 0.262521 -0.28177 -0.284157 -0.936875 -0.203765 0 255 0 255 
-6.24109 1.15697 -0.411117 0.12672 -0.648125 -0.750917 0 255 0 255 
-2.32347 0.610946 -0.434303 0.290066 -0.00489476 -0.956994 0 255 0 255 
-1.08707 0.536614 0.371075 -0.872406 -0.4174 -0.254335 0 255 0 255 
-1.154 0.473661 0.634023 -0.33107 -0.736433 -0.589966 0 255 0 255 
-2.10605 0.46611 0.221951 -0.237071 -0.970807 -0.0364973 0 255 0 255 
-0.914453 0.46074 0.481364 0.392546 -0.893276 0.219012 0 255 0 255 
-0.875161 0.0464123 0.626782 0.353708 0.861892 -0.363364 0 255 0 255 
-1.05933 0.572794 0.591144 0.270641 -0.928859 0.252931 0 255 0 255 
-0.996826 0.430078 0.582541 -0.216035 -0.679333 -0.70131 0 255 0 255 
-1.09192 0.578874 0.586249 0.50413 -0.772251 -0.386629 0 255 0 255 
-3.66475 0.900752 -1.78276 -0.55381 0.15297 0.818471 0 255 0 255 
-3.93445 0.427634 -2.08171 0.356609 -0.772223 0.525834 0 255 0 255 
-2.63983 -0.298057 -0.867689 -0.0236467 0.282495 -0.958977 0 255 0 255 
-4.06841 -1.32434 -2.40901 -0.642089 0.271202 0.717058 0 255 0 255 
-5.16441 -1.26032 -3.91569 -0.231053 -0.303226 -0.924483 0 255 0 255 
-4.00625 1.67672 -2.16803 -0.31072 0.0452258 0.949425 0 255 0 255 
-1.5971 1.31936 -0.836603 0.0116742 -0.708339 -0.705775 0 255 0 255 
-5.32741 1.02085 -2.16244 -0.222256 -0.597139 0.770732 0 255 0 255 
-2.5158 0.455744 -0.116085 0.751448 0.537499 0.382649 0 255 0 255 
-2.23593 0.728063 -0.111716 0.559017 0.302355 -0.772064 0 255 0 255 
-2.56071 0.510882 0.00179124 0.332887 0.742437 -0.581356 0 255 0 255 
-1.09525 0.476092 0.632907 0.0619502 -0.966559 -0.248851 0 255 0 255 
-3.97501 0.164158 -0.180399 0.0236515 -0.934481 -0.355226 0 255 0 255 
-0.98293 0.482003 0.628075 0.957527 -0.288231 -0.00810569 0 255 0 255 
-2.63617 0.296916 0.045576 0.35753 -0.245759 -0.900986 0 255 0 255 
-5.84525 0.422619 -0.255425 0.330614 -0.354948 -0.874475 0 255 0 255 
-3.65602 0.779769 -0.0164163 -0.300211 -0.76173 0.574144 0 255 0 255 
-4.85469 -0.831238 -0.732472 -0.759916 0.338291 0.555056 0 255 0 255 
-1.25601 0.420963 0.621495 0.439481 0.403702 0.802422 0 255 0 255 
-5.46355 0.238687 -0.71591 0.551529 -0.697624 -0.457315 0 255 0 255 
-2.48691 0.38023 0.11434 -0.322369 0.449314 -0.833184 0 255 0 255 
-3.53042 -1.04957 -0.718886 -0.172565 -0.054671 0.98348 0 255 0 255 
-7.30537 -1.18672 -3.97895 -0.108343 0.406458 0.907223 0 255 0 255 
-4.84063 -0.916524 -0.72731 -0.447548 -0.407795 -0.795867 0 255 0 255 
-2.24077 0.41931 0.11411 -0.0640833 0.403298 -0.912822 0 255 0 255 
-5.63099 0.20614 -0.290848 0.307628 -0.0537668 -0.949986 0 255 0 255 
-3.89812 0.144992 -0.173401 0.035367 -0.895213 -0.444233 0 255 0 255 
-2.7603 1.27785 -1.92372 0.0552064 0.922075 -0.383053 0 255 0 255 
-4.81039 -1.30337 -0.565074 -0.506614 -0.636342 0.581731 0 255 0 255 
-7.28576 -1.23464 -3.83141 -0.264459 0.536248 0.801561 0 255 0 255 
-6.10232 0.265678 -0.457309 0.363882 0.730452 -0.577952 0 255 0 255 
-0.913657 0.330749 0.355896 0.136491 -0.488127 -0.862034 0 255 0 255 
-6.79468 0.650116 -0.338929 0.258807 0.94965 -0.17659 0 255 0 255 
-1.08807 0.509713 0.662879 -0.118992 -0.863604 -0.489928 0 255 0 255 
-5.99247 0.269242 -0.222623 -0.427724 0.288444 -0.856652 0 255 0 255 
-4.28181 0.370464 0.0527304 0.810175 0.275459 0.517435 0 255 0 255 
-5.86639 0.378114 -0.146009 0.128451 -0.872443 -0.471534 0 255 0 255 
-3.29278 0.0978333 -0.628253 -0.382605 -0.39501 0.835213 0 255 0 255 
-1.32833 0.552196 0.374658 0.615159 -0.733353 0.289436 0 255 0 255 
