ply
format ascii 1.0
comment VCGLIB generated
element vertex 671
property float x
property float y
property float z
property float nx
property float ny
property float nz
property uchar red
property uchar green
property uchar blue
property uchar alpha
element face 0
property list uchar int vertex_indices
end_header
-0.925722 0.330643 2.61761 0.433324 0.876253 0.210741 255 255 255 255 
-1.05031 0.592586 2.56186 -0.450158 -0.161355 0.87825 255 255 255 255 
-1.00436 1.13068 2.54654 -0.133338 0.110245 0.98492 255 255 255 255 
-1.07835 1.17615 2.24235 0.36849 0.382366 -0.847355 255 255 255 255 
-1.09198 1.15368 2.24128 0.142788 0.0659713 -0.987552 255 255 255 255 
-1.34015 1.16255 2.44137 -0.411929 -0.905291 0.103745 255 255 255 255 
-1.18959 1.169 2.19208 -0.484276 0.873439 0.050814 255 255 255 255 
-1.19919 1.18685 2.17018 -0.157948 0.986321 -0.047152 255 255 255 255 
-1.08519 1.17948 2.04344 -0.447427 0.772669 -0.450325 255 255 255 255 
-1.35662 1.14391 2.43218 -0.411929 -0.905291 0.103745 255 255 255 255 
-1.24958 1.184 2.1476 0.860669 0.446796 -0.244177 255 255 255 255 
-1.54967 1.14146 2.14284 -0.138585 -0.557359 0.818624 255 255 255 255 
-1.55433 1.12929 2.12911 -0.138585 -0.557359 0.818624 255 255 255 255 
-1.08675 0.593693 2.52978 -0.450158 -0.161355 0.87825 255 255 255 255 
-1.05662 0.283419 2.54691 -0.842973 0.319081 0.43311 255 255 255 255 
-1.62339 1.12167 2.78851 -0.484673 -0.519825 0.703472 255 255 255 255 
-0.711148 0.139613 2.60872 0.219246 -0.361053 0.906406 255 255 255 255 
-0.662707 0.151299 2.55075 0.673119 0.0859238 0.734526 255 255 255 255 
-0.65397 0.530252 2.51579 0.771762 -0.317632 0.550902 255 255 255 255 
-0.673724 1.12689 2.51228 0.832222 0.151957 0.533212 255 255 255 255 
-0.788536 0.507051 2.58415 -0.145265 -0.186213 -0.971711 255 255 255 255 
-0.843926 0.139075 2.58633 0.0749717 -0.942081 0.3269 255 255 255 255 
-0.899172 0.153205 2.6253 0.00340188 -0.857372 0.514686 255 255 255 255 
-0.858547 0.460727 2.58786 -0.0595227 0.743898 -0.665637 255 255 255 255 
-0.805105 0.220824 2.58675 0.151518 0.00189395 0.988453 255 255 255 255 
-0.860046 0.0574797 2.56826 0.336791 -0.0881889 0.93744 255 255 255 255 
-0.880281 0.511824 2.5863 0.609706 -0.185502 -0.770615 255 255 255 255 
-0.820474 0.149329 2.58154 0.166205 -0.870032 0.464134 255 255 255 255 
-0.857527 0.0604853 2.54709 0.413755 -0.389069 0.823063 255 255 255 255 
-0.977915 0.104087 2.64091 -0.171433 -0.541201 0.823232 255 255 255 255 
-0.900388 1.19138 2.43746 0.150419 -0.887976 0.434595 255 255 255 255 
-1.0483 0.282726 2.55211 -0.937566 0.178483 0.298521 255 255 255 255 
-1.05086 0.276476 2.53337 -0.786889 0.29969 0.539437 255 255 255 255 
-1.06871 0.320627 2.54575 -0.241686 -0.645187 0.724791 255 255 255 255 
-1.58189 1.15773 2.81232 -0.227309 -0.078023 0.970692 255 255 255 255 
-1.01734 1.21406 2.42142 -0.188672 -0.981973 -0.0114884 255 255 255 255 
-1.63471 1.11149 2.7432 -0.703436 -0.481456 0.522855 255 255 255 255 
-1.07091 1.16375 2.31957 -0.506722 0.862091 0.00567354 255 255 255 255 
-1.71868 1.14529 2.6829 -0.218052 0.975817 -0.0153257 255 255 255 255 
-1.04776 1.19608 2.32705 0.813919 0.576622 -0.0710204 255 255 255 255 
-2.1566 1.15156 2.8227 -0.770419 -0.544725 0.331253 255 255 255 255 
-1.06092 1.20019 2.28215 0.765946 0.637249 -0.0850934 255 255 255 255 
-1.84053 1.14644 2.54028 0.0107321 -0.708734 0.705394 255 255 255 255 
-1.22719 1.16604 2.19347 0.592837 -0.791186 -0.150228 255 255 255 255 
-1.17772 1.18607 2.16056 0.992273 0.0484301 0.114229 255 255 255 255 
-1.6411 1.19137 2.32115 0.266621 -0.403853 0.875109 255 255 255 255 
-1.52078 1.12941 2.23285 0.299165 -0.915614 0.268611 255 255 255 255 
-1.28534 0.792216 2.11671 -0.557 -0.402329 -0.726555 255 255 255 255 
-1.13295 0.60891 2.11135 -0.973446 -0.224354 -0.0454842 255 255 255 255 
-1.23438 1.13219 2.17061 0.872191 -0.358687 -0.332607 255 255 255 255 
-1.04926 1.16739 2.53325 0.322585 -0.896814 -0.302759 255 255 255 255 
-1.55382 1.16823 2.81459 -0.227309 -0.078023 0.970692 255 255 255 255 
-1.48508 1.15218 2.17381 -0.323156 -0.943056 -0.0788444 255 255 255 255 
-1.32976 0.242731 2.95379 0.019709 -0.743665 0.668262 255 255 255 255 
-1.06953 0.257919 2.5633 -0.00355149 0.764764 -0.644301 255 255 255 255 
-1.06722 0.0391197 2.58058 0.247717 -0.46043 0.852432 255 255 255 255 
-0.639344 0.208203 2.52671 0.584112 0.0716001 0.808509 255 255 255 255 
-0.753596 0.127747 2.59006 -0.0522387 -0.437832 0.897538 255 255 255 255 
-0.834684 0.139944 2.59154 0.204476 -0.949819 0.236714 255 255 255 255 
-0.777258 0.0682176 2.53719 0.881029 -0.133371 0.453873 255 255 255 255 
-0.780171 0.0531056 2.53014 0.946469 0.193469 0.258391 255 255 255 255 
-0.844593 0.227579 2.60377 0.432974 0.221324 0.873813 255 255 255 255 
-0.894255 0.513681 2.59847 0.711304 0.109637 0.694281 255 255 255 255 
-1.34478 0.271875 2.97113 0.0544193 -0.879962 0.471917 255 255 255 255 
-0.907782 0.336599 2.5891 0.185504 0.943653 -0.274058 255 255 255 255 
-1.0721 0.194444 2.71596 0.865925 0.258096 0.42844 255 255 255 255 
-0.932825 0.327237 2.5842 -0.569755 0.392999 0.721756 255 255 255 255 
-0.965953 0.370669 2.61112 -0.0736208 -0.878437 0.472154 255 255 255 255 
-1.31699 0.246766 2.91203 -0.00330057 -0.881609 0.471968 255 255 255 255 
-1.0523 1.19547 2.57436 0.0074177 -0.876452 0.481432 255 255 255 255 
-1.01574 1.19033 2.52763 0.654203 -0.706879 -0.268961 255 255 255 255 
-1.04368 1.20199 2.49155 0.274733 -0.941906 -0.193222 255 255 255 255 
-1.15771 1.01503 2.56842 0.591494 0.0500238 0.804756 255 255 255 255 
-0.943979 1.16335 2.38831 -0.149006 -0.984866 0.0885229 255 255 255 255 
-1.13548 1.15109 2.51999 0.243219 -0.609068 0.754904 255 255 255 255 
-2.01267 1.14894 2.47458 0.100738 -0.937471 -0.333168 255 255 255 255 
-2.10377 0.962482 2.71859 0.637757 0.0758571 0.766494 255 255 255 255 
-1.4629 1.13858 2.09036 -0.245571 -0.964389 0.0982293 255 255 255 255 
-1.24042 0.499106 2.16043 -0.296156 -0.0986966 -0.950027 255 255 255 255 
-1.32914 0.860932 2.09751 -0.443442 -0.151559 -0.883397 255 255 255 255 
-1.43202 1.09085 2.06215 -0.446207 -0.894664 0.0218118 255 255 255 255 
-1.3081 1.18374 2.58394 0.424112 -0.21735 0.87914 255 255 255 255 
-1.37056 0.267436 2.96906 0.0544193 -0.879962 0.471917 255 255 255 255 
-1.05926 0.258337 2.53631 0.49619 0.867615 -0.032246 255 255 255 255 
-4.20839 0.19114 3.1685 -0.0283755 -0.415068 0.909348 255 255 255 255 
-4.85224 0.992039 3.15635 -0.374043 0.231484 0.898057 255 255 255 255 
-0.55238 0.468375 2.3954 0.654384 -0.0604305 0.753744 255 255 255 255 
-0.861584 0.0861815 2.57372 0.483438 -0.438869 0.757418 255 255 255 255 
-0.824964 0.534249 2.58086 -0.36406 -0.892481 -0.266341 255 255 255 255 
-0.772249 0.50515 2.59386 -0.145265 -0.186213 -0.971711 255 255 255 255 
-0.868037 0.0725914 2.55971 0.502131 -0.684785 0.528142 255 255 255 255 
-0.880114 0.49379 2.59521 0.696465 -0.0304371 -0.716945 255 255 255 255 
-0.923559 0.153502 2.60296 -0.171087 -0.511256 0.842227 255 255 255 255 
-0.782734 0.509035 2.57637 -0.524967 -0.523692 -0.670938 255 255 255 255 
-0.939041 0.146732 2.59825 0.0211423 0.24566 0.969126 255 255 255 255 
-0.845675 0.324508 2.59321 -0.0793023 0.784901 -0.614526 255 255 255 255 
-0.865807 0.333025 2.58519 -0.0793023 0.784901 -0.614526 255 255 255 255 
-1.1507 0.195973 2.74288 0.170129 0.843046 0.510224 255 255 255 255 
-1.01952 0.411202 2.65165 0.239576 -0.730259 0.639786 255 255 255 255 
-0.97304 0.0740346 2.52978 -0.383655 -0.480281 0.788758 255 255 255 255 
-1.04611 0.851342 2.54568 -0.172617 -0.0329319 0.984438 255 255 255 255 
-1.06148 0.860309 2.54076 -0.172617 -0.0329319 0.984438 255 255 255 255 
-1.11554 1.24364 2.53926 0.518424 -0.505366 0.689812 255 255 255 255 
-1.04413 0.583899 2.55905 -0.544688 0.0553432 0.836811 255 255 255 255 
-1.04969 0.346808 2.55544 -0.556075 -0.176939 0.81208 255 255 255 255 
-1.1891 1.22422 2.86347 -0.115732 0.902061 0.415803 255 255 255 255 
-1.06929 0.718357 2.50735 0.619491 -0.290391 0.729317 255 255 255 255 
-1.5747 1.1742 2.80838 -0.227309 -0.078023 0.970692 255 255 255 255 
-1.59704 1.13003 2.53221 -0.640692 -0.744042 0.189513 255 255 255 255 
-2.05768 1.12896 2.79808 0.825782 -0.31534 -0.467595 255 255 255 255 
-1.93343 1.21784 2.42247 -0.0821598 -0.968957 -0.233179 255 255 255 255 
-1.31887 1.03806 2.03211 -0.706107 -0.503592 -0.497803 255 255 255 255 
-1.28026 0.802961 2.11433 -0.557 -0.402329 -0.726555 255 255 255 255 
-1.05587 0.197671 2.69574 0.704141 0.653139 0.27856 255 255 255 255 
-1.85296 1.17653 2.85226 0.174589 -0.884173 0.433309 255 255 255 255 
-1.61032 1.09382 2.55673 -0.492913 -0.545207 0.678075 255 255 255 255 
-3.28413 0.784171 2.70203 0.370223 -0.169104 0.913422 255 255 255 255 
-6.13516 0.285699 3.71035 0.0772092 0.960106 0.268766 255 255 255 255 
-3.39243 0.915316 2.84815 0.755193 0.103588 -0.647266 255 255 255 255 
-0.824428 0.0553186 2.54531 -0.0173205 0.669243 0.742841 255 255 255 255 
-0.882052 0.247808 2.62462 0.329899 0.378971 0.864608 255 255 255 255 
-0.881377 0.511186 2.58603 0.609706 -0.185502 -0.770615 255 255 255 255 
-0.968627 0.156081 2.59036 0.0211422 0.24566 0.969126 255 255 255 255 
-1.08286 0.845092 2.55765 -0.172617 -0.0329319 0.984438 255 255 255 255 
-1.10975 1.20993 2.54852 0.809828 0.325427 0.488135 255 255 255 255 
-1.07452 0.550159 2.55039 -0.290452 0.284396 0.91365 255 255 255 255 
-1.64912 1.12604 2.5365 -0.121666 -0.279043 0.95254 255 255 255 255 
-1.15827 1.17834 2.35456 -0.373555 0.842432 0.388285 255 255 255 255 
-1.14329 1.14775 2.24592 0.0765606 -0.115684 -0.990331 255 255 255 255 
-1.19273 0.955823 2.21333 0.0858004 -0.736272 0.671224 255 255 255 255 
-1.4018 1.19903 2.26264 0.0813787 -0.000105187 0.996683 255 255 255 255 
-1.34177 1.01397 2.23414 0.267181 0.117898 0.956407 255 255 255 255 
-1.54158 1.13915 2.2716 0.323292 -0.662358 0.675843 255 255 255 255 
-1.52647 1.16907 2.1402 -0.0315511 -0.78719 0.615904 255 255 255 255 
-1.30238 1.09516 1.97874 -0.776555 0.599468 0.193906 255 255 255 255 
-1.32664 1.06422 2.07921 -0.949507 0.213808 -0.229616 255 255 255 255 
-1.39013 1.06968 2.24634 0.473349 -0.0281465 0.880425 255 255 255 255 
-1.33518 1.04503 1.99932 -0.949507 0.213808 -0.229616 255 255 255 255 
-1.28764 1.05475 2.20091 0.551173 -0.623676 -0.55429 255 255 255 255 
-1.0683 1.20793 2.44883 0.301844 -0.879713 -0.367416 255 255 255 255 
-1.38015 1.14372 2.34228 -0.788136 -0.61041 0.0790006 255 255 255 255 
-1.29653 1.13269 2.27742 -0.215343 -0.355994 0.909338 255 255 255 255 
-2.69843 0.0838382 2.6623 0.771644 0.3886 0.503543 255 255 255 255 
-4.04694 0.882101 2.81527 0.538962 -0.174213 0.824117 255 255 255 255 
-2.51536 1.08427 2.88375 0.42228 -0.806815 0.413194 255 255 255 255 
-2.67556 1.06084 2.923 0.256133 0.0761951 -0.963634 255 255 255 255 
-2.24527 1.10992 2.84464 0.044918 -0.931129 -0.361913 255 255 255 255 
-4.71171 1.06401 3.15418 0.133315 0.907629 0.398041 255 255 255 255 
-1.323 0.61312 2.11058 0.366797 0.836343 0.407419 255 255 255 255 
-1.05634 0.468439 2.05115 -0.413233 -0.910456 0.0175566 255 255 255 255 
-3.50349 0.851907 2.77061 -0.0684197 -0.0988778 0.992745 255 255 255 255 
-1.03082 0.284704 2.60795 -0.0513715 -0.565994 0.822807 255 255 255 255 
-0.907053 1.18447 2.51375 -0.0498251 -0.863177 0.502437 255 255 255 255 
-1.07168 1.18429 2.57213 -0.077013 -0.207813 0.975132 255 255 255 255 
-0.92342 0.895304 2.43385 -0.368644 0.795873 -0.4803 255 255 255 255 
-1.04188 1.18135 2.52471 0.495761 -0.847246 -0.190776 255 255 255 255 
-1.11994 1.05139 2.5298 0.588133 -0.167342 0.791262 255 255 255 255 
-1.17737 1.17791 2.22508 0.594917 0.781559 -0.187724 255 255 255 255 
-1.60316 1.13638 2.27637 0.129861 -0.598273 0.790699 255 255 255 255 
-1.34108 0.999963 2.10721 -0.85027 -0.520696 0.0769245 255 255 255 255 
-1.10068 0.629528 2.01517 -0.470869 -0.838887 -0.273041 255 255 255 255 
-1.00567 0.313184 2.60343 -0.180714 0.073317 0.980799 255 255 255 255 
-1.77765 1.17621 2.56569 0.0997515 -0.410022 0.906605 255 255 255 255 
-4.4604 1.20564 3.20199 0.277836 -0.535903 0.797255 255 255 255 255 
-2.54234 1.19442 2.94671 0.197579 -0.49663 0.845175 255 255 255 255 
-1.09961 1.16589 2.21614 -0.756267 0.558463 -0.340851 255 255 255 255 
-1.08538 0.47722 2.06226 -0.654705 -0.736919 0.168261 255 255 255 255 
-3.78967 0.813371 2.72493 0.315313 -0.487578 -0.814153 255 255 255 255 
-1.04248 1.17652 2.48728 0.20065 -0.959815 -0.196199 255 255 255 255 
-1.07006 1.19126 2.47697 0.912276 0.216335 0.347782 255 255 255 255 
-1.07367 1.21582 2.4179 0.454346 -0.855893 -0.247014 255 255 255 255 
-1.64833 1.16886 2.777 -0.648737 -0.501157 0.572697 255 255 255 255 
-1.06636 1.19233 2.37756 -0.343437 -0.921449 0.181613 255 255 255 255 
-2.53846 1.26523 2.98503 0.131024 -0.391052 0.910995 255 255 255 255 
-1.6449 1.27933 2.83258 -0.312218 -0.529803 0.788561 255 255 255 255 
-1.10074 1.15504 2.15615 0.0887401 0.978952 0.183786 255 255 255 255 
-1.3809 1.0833 2.25038 0.596517 -0.469475 0.650969 255 255 255 255 
-1.10114 0.62611 2.00105 -0.796598 -0.537627 -0.276386 255 255 255 255 
-1.28265 1.15213 1.88694 0.127557 -0.960232 -0.248362 255 255 255 255 
-3.31073 1.06738 3.00175 -0.0668847 0.300152 -0.951544 255 255 255 255 
-3.64548 0.780665 2.77455 0.208823 -0.376741 0.902474 255 255 255 255 
-1.18173 0.616567 2.15533 -0.30467 -0.937231 0.16963 255 255 255 255 
-5.08106 1.34995 3.04783 0.357481 0.773886 0.522789 255 255 255 255 
-4.23851 0.778445 2.84635 0.163588 0.207278 0.964508 255 255 255 255 
-5.51673 0.77985 3.00213 0.71682 -0.669757 0.193894 255 255 255 255 
-1.39661 0.655693 2.11462 0.237193 0.968591 -0.0746425 255 255 255 255 
-4.31233 0.937273 2.82323 0.578219 -0.767009 0.278136 255 255 255 255 
-3.91547 1.00132 3.03143 -0.49616 -0.668996 0.553417 255 255 255 255 
-3.7916 0.788256 2.99575 0.570372 -0.371773 0.732435 255 255 255 255 
-1.60298 1.29119 2.88921 0.0453351 -0.536021 0.842987 255 255 255 255 
-1.24176 1.06876 2.23979 0.303215 -0.683553 0.66394 255 255 255 255 
-1.18899 1.19151 2.16572 0.957679 0.281043 0.0621729 255 255 255 255 
-1.30331 1.13118 2.02746 -0.784565 0.389245 -0.482644 255 255 255 255 
-1.38939 0.688011 2.12034 -0.130438 0.611534 -0.780392 255 255 255 255 
-3.41919 0.798154 2.66983 -0.0452253 -0.447555 0.893112 255 255 255 255 
-4.80699 1.07008 3.14151 -0.298223 0.32996 0.89565 255 255 255 255 
-1.29357 1.16984 1.84989 0.273492 -0.684204 -0.676067 255 255 255 255 
-2.15774 0.106623 2.22679 -0.062267 -0.859576 -0.507201 255 255 255 255 
-1.96846 0.947063 2.08976 -0.190637 -0.567335 -0.801117 255 255 255 255 
-2.00725 1.02341 2.07681 -0.749003 -0.321328 -0.579433 255 255 255 255 
-5.66305 1.42753 3.31727 0.462021 -0.146551 0.874677 255 255 255 255 
-3.64792 0.446863 2.3128 0.810554 0.0119762 0.585542 255 255 255 255 
-3.64459 0.316783 2.29729 0.158873 0.952416 0.260123 255 255 255 255 
-3.2031 0.281287 2.22514 -0.698292 -0.69212 -0.182642 255 255 255 255 
-3.09482 0.288673 2.19732 -0.400404 0.535324 0.74371 255 255 255 255 
-2.05766 1.05099 2.8036 0.23287 -0.432421 0.871082 255 255 255 255 
-2.04742 0.994443 2.77224 0.614807 -0.398234 0.680751 255 255 255 255 
-2.135 1.01625 2.78065 0.233153 -0.512923 0.826166 255 255 255 255 
-1.13146 1.16382 2.23326 0.0867513 -0.0964088 -0.991554 255 255 255 255 
-1.26661 0.585027 2.11858 -0.0300065 0.743044 0.668569 255 255 255 255 
-1.04734 0.453655 2.04732 -0.413233 -0.910456 0.0175566 255 255 255 255 
-1.26059 1.14073 2.17254 0.826093 -0.407529 -0.389217 255 255 255 255 
-1.30139 1.13054 1.85685 -0.997954 0.0466405 0.0437242 255 255 255 255 
-7.26119 1.35212 2.1811 0.27364 -0.0251377 0.961504 255 255 255 255 
-4.21975 0.511481 2.27529 0.0735043 -0.995286 -0.0632615 255 255 255 255 
-1.01601 0.489907 1.84993 -0.284158 -0.0611074 -0.956828 255 255 255 255 
-1.02852 0.517008 1.83859 -0.953406 0.0988326 -0.285043 255 255 255 255 
-1.02912 0.468986 1.86062 -0.286649 -0.053828 -0.956522 255 255 255 255 
-1.30258 1.07505 2.20842 -0.536874 -0.652805 0.534427 255 255 255 255 
-4.18886 0.309356 2.7817 -0.722242 0.345204 -0.599333 255 255 255 255 
-1.93881 0.917348 2.13063 -0.715382 -0.399308 -0.573396 255 255 255 255 
-4.46548 0.362159 2.38409 0.15664 0.16728 -0.973387 255 255 255 255 
-4.64367 0.421311 2.36624 0.39702 0.20373 -0.894913 255 255 255 255 
-3.64954 0.476232 2.22991 0.74133 0.597542 -0.305569 255 255 255 255 
-1.83692 0.378498 2.10505 -0.388048 -0.126846 -0.912869 255 255 255 255 
-1.79634 0.501876 2.07 -0.363443 0.140241 -0.921 255 255 255 255 
-4.37334 0.552843 2.38966 0.582577 0.363448 -0.726987 255 255 255 255 
-1.58249 0.475583 2.00134 -0.878015 -0.247929 0.409415 255 255 255 255 
-3.7517 0.963826 1.98329 -0.58328 -0.791063 -0.184404 255 255 255 255 
-2.19426 0.58282 2.03951 -0.13836 -0.838073 -0.527722 255 255 255 255 
-5.5423 0.885518 2.16014 -0.660577 0.750758 -0.00100701 255 255 255 255 
-3.71063 0.855102 1.9975 -0.141512 -0.573154 -0.807136 255 255 255 255 
-1.18702 0.976257 1.99405 0.256028 0.585155 -0.769444 255 255 255 255 
-1.02211 0.502544 1.85322 -0.284158 -0.0611074 -0.956828 255 255 255 255 
-1.2306 1.17988 1.64433 0.236732 -0.956999 0.167662 255 255 255 255 
-1.11886 0.676581 1.7817 0.464158 -0.79479 -0.390981 255 255 255 255 
-5.64448 0.820162 2.04678 0.0410439 0.402754 -0.914388 255 255 255 255 
-1.06021 0.474987 1.85536 -0.044215 -0.10207 -0.993794 255 255 255 255 
-4.32262 0.823303 2.02815 0.634997 0.239119 -0.734575 255 255 255 255 
-1.80277 0.700057 1.82442 -0.989266 -0.133541 0.0593336 255 255 255 255 
-1.86454 0.712062 1.78362 -0.769325 0.227786 -0.596869 255 255 255 255 
-1.13279 0.661369 1.73152 0.410031 -0.889086 -0.203472 255 255 255 255 
-4.10472 0.783243 2.3306 0.334033 -0.128482 -0.933763 255 255 255 255 
-4.67219 0.294441 2.19036 0.558925 0.78791 -0.258457 255 255 255 255 
-4.58853 0.815384 1.97689 -0.0199099 -0.297709 -0.954449 255 255 255 255 
-1.83543 0.705739 1.81853 -0.979897 0.190285 -0.0599495 255 255 255 255 
-2.81962 0.3875 1.93463 0.221903 0.37716 0.899171 255 255 255 255 
-2.70722 0.399233 1.92378 -0.0208342 0.188431 0.981865 255 255 255 255 
-2.536 0.686062 1.84793 -0.265276 -0.47506 0.839015 255 255 255 255 
-1.49345 0.44989 1.7383 -0.00521776 -0.628937 -0.777438 255 255 255 255 
-1.52762 0.611937 1.82743 -0.649695 0.748565 -0.132465 255 255 255 255 
-2.18176 0.554548 1.8 0.0344678 -0.470185 0.881895 255 255 255 255 
-1.65718 1.13491 2.41835 -0.446599 -0.888284 -0.107244 255 255 255 255 
-1.67016 1.16941 2.40039 -0.53595 -0.841093 -0.0729333 255 255 255 255 
-1.85468 0.759382 2.00124 -0.290902 -0.915327 -0.278483 255 255 255 255 
-1.53803 0.614245 1.81547 -0.649695 0.748565 -0.132465 255 255 255 255 
-1.14258 0.667619 1.72586 0.410031 -0.889086 -0.203472 255 255 255 255 
-1.47622 0.456426 1.72286 -0.00521776 -0.628937 -0.777438 255 255 255 255 
-2.47653 0.595309 2.10442 0.685508 -0.195236 0.7014 255 255 255 255 
-2.2852 0.453585 2.11527 0.219455 -0.546912 -0.807915 255 255 255 255 
-4.86482 0.306373 2.187 -0.131479 -0.369862 -0.919737 255 255 255 255 
-1.6126 0.397997 1.81839 -0.216395 0.649976 -0.728494 255 255 255 255 
-4.12375 0.826246 2.86439 0.249379 -0.0919904 0.964027 255 255 255 255 
-4.4479 0.497107 2.36961 -0.0205788 0.00965166 -0.999742 255 255 255 255 
-3.81939 0.431012 2.45218 -0.0832331 0.0719323 -0.993931 255 255 255 255 
-4.14466 0.915799 2.26629 0.0951536 -0.600619 -0.793853 255 255 255 255 
-1.80771 0.714341 2.04864 -0.567718 -0.69101 -0.447439 255 255 255 255 
-3.70256 0.498019 2.33917 0.88843 -0.0260502 0.458273 255 255 255 255 
-4.82029 0.250479 2.22026 -0.110104 0.993661 0.0227137 255 255 255 255 
-5.41974 0.994982 2.20396 -0.234767 0.790494 -0.565688 255 255 255 255 
-2.24333 0.596298 1.95297 -0.457018 -0.727607 0.511587 255 255 255 255 
-3.66658 0.267943 1.77847 -0.684315 -0.160554 -0.711291 255 255 255 255 
-3.28167 0.353077 1.72297 -0.0887885 -0.9499 0.299678 255 255 255 255 
-3.72748 0.995077 2.81145 -0.0935028 0.0832932 0.992129 255 255 255 255 
-1.98011 0.0990229 2.26297 -0.011745 -0.853059 -0.521682 255 255 255 255 
-4.43638 0.936688 2.87172 0.508129 -0.812414 0.285986 255 255 255 255 
-3.27256 0.649347 2.59161 0.6316 -0.646605 0.427765 255 255 255 255 
-1.89143 0.125434 2.22358 0.0180384 -0.697114 -0.716733 255 255 255 255 
-2.3626 0.136534 2.30195 -0.289865 -0.564171 -0.773104 255 255 255 255 
-2.86084 0.207879 2.35301 0.0574372 0.717327 0.694366 255 255 255 255 
-4.57736 0.504848 2.43368 0.424178 0.110041 -0.898868 255 255 255 255 
-4.60237 0.562724 2.37295 0.513533 0.244285 -0.822562 255 255 255 255 
-4.9416 0.309531 2.38474 0.295186 0.673569 -0.677621 255 255 255 255 
-4.991 0.714358 2.38347 0.209569 0.438399 -0.874006 255 255 255 255 
-4.57723 0.25214 2.33024 0.087764 0.992708 -0.082631 255 255 255 255 
-1.84346 0.375255 2.0772 -0.47204 -0.100372 -0.875845 255 255 255 255 
-4.73293 0.338835 2.31224 -0.565437 0.806872 -0.170995 255 255 255 255 
-4.87219 1.00198 2.33958 0.146076 -0.982943 0.111735 255 255 255 255 
-1.77016 0.399104 2.06107 -0.419966 0.0435214 -0.906496 255 255 255 255 
-4.9355 0.962554 2.32168 0.526904 -0.765508 -0.369281 255 255 255 255 
-5.25103 0.252476 2.1702 0.199056 0.977174 0.074216 255 255 255 255 
-5.18942 0.989169 2.16255 0.174407 -0.626243 -0.75987 255 255 255 255 
-5.24205 0.916444 2.16011 0.332611 -0.199979 -0.921617 255 255 255 255 
-1.63926 0.554125 2.00074 -0.982382 0.110761 -0.150527 255 255 255 255 
-2.02014 0.968627 2.02198 -0.738351 -0.298888 -0.60457 255 255 255 255 
-4.15943 0.332144 2.08136 0.123138 -0.688956 0.714267 255 255 255 255 
-5.16537 1.02158 2.1144 0.230136 -0.778389 -0.584078 255 255 255 255 
-1.5793 0.424373 1.98906 -0.728347 -0.684096 0.0390347 255 255 255 255 
-3.90141 1.00715 2.01284 -0.758532 -0.510468 -0.405033 255 255 255 255 
-4.74935 0.345627 2.18262 0.204571 -0.352849 -0.913043 255 255 255 255 
-4.56896 0.291058 2.00108 -0.122806 -0.768022 -0.628539 255 255 255 255 
-3.92414 1.05462 1.96468 -0.727085 -0.652585 -0.213262 255 255 255 255 
-5.98769 0.258698 1.97002 -0.400032 0.467492 0.788306 255 255 255 255 
-3.90174 0.28866 1.95046 -0.500453 0.115194 -0.858066 255 255 255 255 
-5.21816 0.284678 1.92021 -0.184548 -0.730532 0.657468 255 255 255 255 
-5.15542 0.242399 1.90437 -0.328672 -0.66125 0.674332 255 255 255 255 
-1.55377 0.616143 1.9308 0.366207 0.929254 0.048777 255 255 255 255 
-2.20141 0.605124 1.90535 -0.373197 -0.911703 0.171817 255 255 255 255 
-1.88597 0.784489 1.90527 -0.993493 -0.0347879 -0.108455 255 255 255 255 
-3.79418 0.131961 1.83669 0.558213 -0.827377 -0.0620129 255 255 255 255 
-4.17761 0.228697 1.82073 -0.868096 -0.360028 -0.341745 255 255 255 255 
-3.94005 0.167593 1.82623 -0.19623 -0.8108 -0.551449 255 255 255 255 
-2.75444 0.763757 1.83324 0.234566 0.906696 -0.350545 255 255 255 255 
-2.32507 0.548355 1.84928 -0.336115 -0.071867 0.939075 255 255 255 255 
-2.61571 0.702115 1.81404 0.257477 0.686427 -0.680091 255 255 255 255 
-3.88137 0.205042 1.76722 -0.510311 -0.771802 -0.379347 255 255 255 255 
-4.3673 0.300352 1.91009 -0.667122 -0.546852 0.505867 255 255 255 255 
-3.16535 0.319049 1.71083 -0.0663429 -0.86334 -0.500243 255 255 255 255 
-2.70035 0.420843 1.93118 -0.0208342 0.188431 0.981865 255 255 255 255 
-1.49079 0.445431 1.74894 -0.150301 -0.77055 -0.619405 255 255 255 255 
-5.68283 0.182482 0.830614 -0.015608 -0.999577 -0.0245414 255 255 255 255 
-5.28846 0.217224 0.844424 0.752486 -0.317596 -0.576972 255 255 255 255 
-2.87491 0.389685 1.92605 0.235569 -0.970087 -0.0586435 255 255 255 255 
-3.14173 0.368355 2.26848 0.195439 -0.415529 0.888335 255 255 255 255 
-3.73652 1.06611 2.81671 -0.169955 -0.162617 0.971942 255 255 255 255 
-5.67324 0.321055 2.17684 0.0434916 0.820101 -0.570563 255 255 255 255 
-5.61057 0.222188 1.91735 -0.733965 0.342972 -0.58623 255 255 255 255 
-5.44207 0.971352 2.13668 -0.234767 0.790494 -0.565688 255 255 255 255 
-4.12802 1.14932 1.95033 -0.510133 -0.709398 -0.486331 255 255 255 255 
-1.56423 0.588826 1.82101 -0.872772 0.457086 -0.171293 255 255 255 255 
-3.02117 0.37689 1.90476 0.0534696 -0.996142 -0.0695901 255 255 255 255 
-1.41268 0.686558 2.0519 -0.00928297 0.890863 -0.454177 255 255 255 255 
-2.54513 0.422662 1.89106 0.199947 0.768537 0.60776 255 255 255 255 
-3.26381 0.355296 1.74753 -0.0887887 -0.9499 0.299678 255 255 255 255 
-5.60408 1.24691 2.37011 0.422453 0.669534 -0.610948 255 255 255 255 
-2.52562 0.467907 2.14401 0.48583 -0.150536 0.860993 255 255 255 255 
-5.0939 0.68498 2.37123 0.36571 0.0449383 -0.929644 255 255 255 255 
-3.6413 0.991114 2.7155 0.296073 0.531626 0.793546 255 255 255 255 
-4.10818 0.194672 1.80649 -0.142793 -0.923209 -0.356785 255 255 255 255 
-1.41373 1.0642 1.43575 0.807365 0.151465 -0.570281 255 255 255 255 
-5.41984 1.08936 2.41394 -0.431778 0.504144 -0.747935 255 255 255 255 
-5.52881 0.758051 2.01084 -0.0659272 0.594659 -0.80127 255 255 255 255 
-4.52761 0.260619 1.94182 -0.0591748 -0.997856 -0.0279636 255 255 255 255 
-4.21414 0.341563 2.0625 0.0665058 -0.880352 0.469635 255 255 255 255 
-1.61224 0.616421 1.9728 -0.86744 0.109822 -0.48527 255 255 255 255 
-1.83436 0.698113 1.80342 -0.988839 -0.110378 0.100072 255 255 255 255 
-2.54093 0.678755 1.80854 -0.265276 -0.47506 0.839015 255 255 255 255 
-1.73185 0.41326 1.8643 0.125831 0.940255 0.316366 255 255 255 255 
-6.06816 0.344528 0.755258 0.34623 0.881511 0.321035 255 255 255 255 
-1.51501 0.421947 1.75519 -0.211496 -0.819405 -0.532771 255 255 255 255 
-1.84473 0.455474 1.79357 0.0419766 0.822056 0.567857 255 255 255 255 
-1.83028 0.385322 2.07095 -0.47204 -0.100372 -0.875845 255 255 255 255 
-2.38703 0.565705 1.82738 -0.2133 0.0587845 0.975217 255 255 255 255 
-1.59972 0.465889 1.77067 -0.15189 0.744787 -0.649786 255 255 255 255 
-5.20593 0.532705 2.4449 0.545363 -0.122981 -0.829129 255 255 255 255 
-4.29175 1.03809 2.11904 -0.260933 0.937577 -0.229923 255 255 255 255 
-3.90093 0.187228 1.81099 -0.527471 -0.513385 -0.676912 255 255 255 255 
-2.47786 0.713066 1.86102 0.598197 0.590519 -0.541708 255 255 255 255 
-1.76998 0.466309 1.78208 0.0317681 0.988185 0.149935 255 255 255 255 
-1.63308 0.518763 1.98516 -0.979391 0.162296 -0.120225 255 255 255 255 
-1.83855 0.442882 1.80817 0.148918 0.979379 0.136529 255 255 255 255 
-3.55386 0.506429 2.54943 -0.927407 0.244524 0.283062 255 255 255 255 
-3.59511 1.03036 2.73311 0.520413 0.639534 0.565833 255 255 255 255 
-1.59289 0.448095 1.80731 -0.357152 0.262462 -0.896413 255 255 255 255 
-4.21314 0.212386 1.86074 -0.387041 -0.922048 0.00509915 255 255 255 255 
-4.01811 1.05674 2.80048 0.968437 0.226858 0.103268 255 255 255 255 
-4.51008 0.865779 2.77089 0.423964 -0.822327 0.379516 255 255 255 255 
-1.6055 0.476283 2.04557 -0.40052 -0.218737 0.889797 255 255 255 255 
-3.83371 0.575022 2.74367 0.616248 0.300273 0.728062 255 255 255 255 
-4.05394 1.01359 2.86584 0.315939 -0.933553 -0.169298 255 255 255 255 
-3.61693 1.00641 2.7632 0.916179 0.228258 0.329415 255 255 255 255 
-4.65106 0.625412 2.85341 -0.769939 0.615049 0.170025 255 255 255 255 
-4.64046 1.00197 2.91326 -0.328442 -0.525857 -0.784602 255 255 255 255 
-4.1166 0.438726 2.70265 -0.768485 0.541205 -0.341363 255 255 255 255 
-4.63893 0.690247 2.83429 -0.225475 0.549268 0.804652 255 255 255 255 
-2.11774 0.11253 2.28631 -0.011745 -0.853059 -0.521683 255 255 255 255 
-3.25617 0.639269 2.49832 0.295487 -0.910982 0.287747 255 255 255 255 
-4.58045 0.519295 2.32709 0.866492 0.487004 0.109629 255 255 255 255 
-4.09052 0.337161 2.07589 0.117054 -0.425789 0.897219 255 255 255 255 
-1.57463 0.471619 2.05308 -0.599551 -0.13829 0.788299 255 255 255 255 
-3.8793 0.862077 2.03806 -0.0696679 0.107112 -0.991803 255 255 255 255 
-2.02587 1.03662 1.95732 -0.693255 -0.712125 -0.110797 255 255 255 255 
-3.2679 0.340221 1.68238 -0.140881 -0.951136 -0.274759 255 255 255 255 
-1.78934 0.329808 2.07564 -0.385833 -0.0888749 -0.918278 255 255 255 255 
-2.13231 1.00985 1.64728 -0.341683 -0.937724 0.0626575 255 255 255 255 
-1.8125 1.18634 2.57299 0.133623 -0.281077 0.950337 255 255 255 255 
-2.56937 0.751545 1.83077 0.257477 0.686427 -0.680091 255 255 255 255 
-5.16329 1.11816 3.11485 0.509125 0.343601 0.789133 255 255 255 255 
-1.91042 1.18581 2.56794 0.0358171 -0.230309 0.972458 255 255 255 255 
-4.12008 0.625114 2.83597 -0.0482791 0.85945 -0.508936 255 255 255 255 
-5.36332 1.28019 3.17303 0.397764 0.121302 0.909434 255 255 255 255 
-4.37458 0.594805 2.86998 0.274105 0.724759 0.632132 255 255 255 255 
-4.46183 0.980444 2.93054 0.650079 -0.650541 0.392675 255 255 255 255 
-4.63577 0.66195 2.78564 -0.393152 0.199995 0.897459 255 255 255 255 
-5.21223 1.25596 2.90117 -0.726455 -0.673544 0.136389 255 255 255 255 
-4.02166 1.00415 2.85334 -0.0366961 -0.980128 0.194944 255 255 255 255 
-4.12037 0.982884 2.85707 0.149285 -0.943367 0.296266 255 255 255 255 
-4.22346 1.02445 2.68788 -0.706274 -0.430034 0.562358 255 255 255 255 
-4.44922 0.592896 2.82776 -0.6785 0.549474 -0.487562 255 255 255 255 
-4.38954 0.971544 2.8727 0.418831 -0.876028 0.239072 255 255 255 255 
-3.62186 1.05654 2.7498 0.704235 0.687669 0.176536 255 255 255 255 
-3.81295 0.98588 2.74481 -0.653219 -0.132473 0.74549 255 255 255 255 
-2.15538 0.111074 2.26457 -0.062267 -0.859576 -0.507201 255 255 255 255 
-4.3746 1.04803 2.72954 0.155778 -0.0700126 -0.985308 255 255 255 255 
-3.57679 0.507805 2.55913 -0.936536 0.299218 -0.182672 255 255 255 255 
-4.69386 0.490751 2.69607 -0.58283 -0.316002 0.748634 255 255 255 255 
-1.23629 0.248738 2.19393 -0.49763 -0.0519151 -0.865835 255 255 255 255 
-3.51961 1.0647 1.88665 -0.356201 0.921771 0.153166 255 255 255 255 
-1.61539 0.450743 2.01536 -0.728347 -0.684096 0.0390347 255 255 255 255 
-2.57627 0.458257 1.85753 0.366783 0.028967 0.929855 255 255 255 255 
-1.63628 0.462974 1.97769 -0.728347 -0.684096 0.0390347 255 255 255 255 
-2.17852 1.09084 1.69979 -0.408453 -0.904235 0.124601 255 255 255 255 
-1.83814 0.93714 1.5549 -0.457045 -0.669753 -0.58527 255 255 255 255 
-3.40291 1.10875 3.04466 0.115592 -0.382702 -0.916612 255 255 255 255 
-4.60099 0.984046 3.13725 0.234533 -0.591028 0.771803 255 255 255 255 
-4.75121 0.978089 3.15448 0.0320509 -0.0747255 0.996689 255 255 255 255 
-3.50544 0.375287 2.72471 0.72359 0.503832 0.471773 255 255 255 255 
-4.03022 1.03321 2.90523 0.364678 -0.805208 0.4676 255 255 255 255 
-4.20467 1.05438 3.01453 -0.0906616 -0.974934 -0.203184 255 255 255 255 
-4.18595 0.631662 1.9869 -0.366162 -0.207143 -0.907203 255 255 255 255 
-3.84616 1.00493 2.57499 -0.714373 0.66444 -0.219524 255 255 255 255 
-3.93883 0.501963 2.6598 0.847124 0.176724 0.501149 255 255 255 255 
-4.13975 0.356197 2.40816 0.248415 -0.788826 -0.562177 255 255 255 255 
-4.56446 0.338833 2.30132 0.126583 0.104818 -0.986402 255 255 255 255 
-4.38381 0.980363 1.95568 0.171993 0.164121 -0.97133 255 255 255 255 
-2.69813 0.40242 1.9261 -0.0208342 0.188431 0.981865 255 255 255 255 
-2.18495 1.10128 1.73882 -0.256303 -0.966521 0.0121039 255 255 255 255 
-2.46009 0.372978 1.94438 -0.434505 0.894119 0.10843 255 255 255 255 
-1.80894 1.18994 2.57425 0.133623 -0.281077 0.950337 255 255 255 255 
-3.73564 1.07669 2.8156 -0.32352 -0.445775 0.834637 255 255 255 255 
-4.90783 0.783372 2.90319 -0.136436 -0.761581 0.633545 255 255 255 255 
-3.89792 1.06989 2.91769 -0.309658 0.574184 0.757908 255 255 255 255 
-4.02726 1.01756 2.92332 0.364678 -0.805208 0.4676 255 255 255 255 
-4.51777 1.01602 3.01174 0.0795146 -0.97588 0.203314 255 255 255 255 
-3.69795 0.388693 2.60054 -0.481921 0.665987 -0.569397 255 255 255 255 
-3.48597 1.0394 2.65208 0.16887 -0.928861 0.329698 255 255 255 255 
-4.60533 1.07136 2.7962 -0.597956 -0.577483 -0.555843 255 255 255 255 
-3.71295 1.06639 2.63373 -0.891529 0.263283 0.36859 255 255 255 255 
-3.37532 1.07607 2.50462 -0.359698 -0.919077 0.160982 255 255 255 255 
-3.30136 1.0178 2.47195 0.0284023 -0.571668 0.819994 255 255 255 255 
-2.81468 1.09101 2.52357 -0.612933 -0.784214 0.0965493 255 255 255 255 
-4.84292 0.452563 2.40374 -0.687425 0.708501 0.159606 255 255 255 255 
-4.40524 0.446325 2.3557 -0.0395146 0.269247 -0.96226 255 255 255 255 
-5.16806 0.834625 2.09752 0.102469 -0.275383 -0.955858 255 255 255 255 
-4.43658 0.232702 2.05433 0.0851401 -0.996027 0.0260873 255 255 255 255 
-3.92292 0.905248 1.96629 -0.0486953 -0.304007 -0.951425 255 255 255 255 
-5.73591 0.776817 2.01835 0.144159 0.609093 -0.779887 255 255 255 255 
-3.98437 0.339813 1.80415 -0.418534 -0.838413 0.349132 255 255 255 255 
-1.57703 0.645918 1.92167 0.162877 0.982974 0.0850488 255 255 255 255 
-2.44456 0.467091 1.84696 -0.630203 0.319304 0.707735 255 255 255 255 
-4.48591 0.437046 2.75757 -0.00396761 0.35732 0.933974 255 255 255 255 
-3.55803 0.428506 2.55181 -0.799163 0.284368 -0.529597 255 255 255 255 
-2.79379 1.09573 2.94459 0.188439 -0.913372 0.360891 255 255 255 255 
-3.36368 1.11255 3.01428 0.216884 -0.00134921 -0.976196 255 255 255 255 
-3.67231 1.08645 3.04002 0.304928 -0.845936 0.437506 255 255 255 255 
-3.69493 0.482875 2.84716 0.381297 0.897723 -0.220696 255 255 255 255 
-3.77435 1.04259 2.97775 -0.504438 0.156099 0.849221 255 255 255 255 
-4.37384 1.04569 3.0907 0.0247919 -0.935046 0.353657 255 255 255 255 
-3.95692 0.945812 2.82832 0.811671 0.181585 -0.555173 255 255 255 255 
-5.25071 1.11791 3.27502 0.306515 0.181738 0.934355 255 255 255 255 
-4.473 0.978277 3.09884 0.23201 -0.943819 0.235324 255 255 255 255 
-3.60802 0.378579 2.78566 0.125606 0.235217 0.963793 255 255 255 255 
-4.00437 0.411323 2.72658 -0.185924 0.763664 -0.618263 255 255 255 255 
-4.26269 0.593674 2.84805 0.038478 0.694544 -0.71842 255 255 255 255 
-3.90815 0.416566 2.68257 0.136399 0.990633 0.00640708 255 255 255 255 
-4.12657 0.953139 2.56716 0.379836 0.677878 -0.629449 255 255 255 255 
-2.14391 0.12362 2.28553 -0.062267 -0.859576 -0.507201 255 255 255 255 
-2.36587 1.13686 2.93177 -0.135928 -0.95401 -0.267187 255 255 255 255 
-2.29141 1.14286 2.90365 -0.0133726 -0.99546 0.0942359 255 255 255 255 
-2.32696 1.12342 2.90019 -0.683731 -0.54015 -0.490662 255 255 255 255 
-2.37558 1.12644 2.90714 -0.135928 -0.95401 -0.267187 255 255 255 255 
-2.46336 1.15173 2.92702 -0.167826 -0.984434 0.0521909 255 255 255 255 
-2.50966 1.13897 2.92772 0.223738 -0.513751 0.828252 255 255 255 255 
-2.64421 1.14952 2.94638 0.123403 -0.584869 -0.801686 255 255 255 255 
-2.68174 1.03736 2.92789 0.638902 0.078442 -0.765278 255 255 255 255 
-2.68137 1.1347 2.94313 0.123402 -0.584869 -0.801686 255 255 255 255 
-2.76136 1.09585 2.96407 -0.310364 0.020019 -0.950407 255 255 255 255 
-2.77079 1.14775 2.94568 -0.39392 -0.8048 -0.443986 255 255 255 255 
-1.71247 1.22964 2.54962 -0.0144901 -0.273963 0.961631 255 255 255 255 
-2.22986 1.18615 2.75063 -0.813069 -0.555836 0.173107 255 255 255 255 
-2.78196 1.08821 2.43402 -0.326851 -0.944561 0.0312091 255 255 255 255 
-2.82976 1.0894 2.41475 -0.310511 -0.950191 0.0268243 255 255 255 255 
-1.33654 0.215077 2.22972 -0.417971 -0.205845 -0.884833 255 255 255 255 
-2.85377 1.06956 2.47638 -0.309967 -0.948388 0.0669357 255 255 255 255 
-3.73892 1.13292 2.52568 -0.338671 0.915846 0.215704 255 255 255 255 
-3.54756 1.01089 2.41152 0.440346 0.895644 -0.062589 255 255 255 255 
-1.94037 0.131253 2.2441 -0.0327023 -0.678446 -0.733922 255 255 255 255 
-4.91344 0.282465 1.93964 -0.0997146 0.426895 -0.898787 255 255 255 255 
-4.38628 0.270763 1.98953 -0.727601 0.00334446 -0.685992 255 255 255 255 
-3.79528 0.261611 1.87712 0.136643 0.313695 -0.93964 255 255 255 255 
-4.48508 0.275476 1.81725 0.352664 -0.932654 0.0760604 255 255 255 255 
-3.77868 0.153844 1.80409 0.295727 -0.900832 -0.317881 255 255 255 255 
-3.61374 1.02641 2.794 0.907339 0.161339 -0.388209 255 255 255 255 
-4.71318 0.298866 2.19162 -0.367306 -0.117186 -0.922688 255 255 255 255 
-3.66015 1.01603 2.4518 0.172667 0.465015 0.868301 255 255 255 255 
-4.0009 0.628567 2.91078 0.142067 0.904426 -0.402282 255 255 255 255 
-3.43038 1.07395 3.033 0.344347 0.307287 -0.88713 255 255 255 255 
-3.68251 0.989231 2.79447 0.256068 -0.101842 0.961279 255 255 255 255 
-2.7175 1.11511 2.94266 -0.133024 -0.254182 -0.957965 255 255 255 255 
-3.15931 1.11228 2.96581 -0.278962 -0.421203 0.863 255 255 255 255 
-3.82358 0.995791 3.04814 0.486157 0.201079 0.850423 255 255 255 255 
-4.241 0.80506 2.8779 0.557686 0.0768905 0.826483 255 255 255 255 
-3.87191 0.735653 2.76385 0.688418 -0.0286827 0.724747 255 255 255 255 
-4.90941 1.07259 3.09111 -0.0922188 0.944542 0.315175 255 255 255 255 
-3.61148 0.396222 2.55656 -0.562599 0.392211 -0.727773 255 255 255 255 
-3.58729 0.536661 2.504 -0.892378 0.446343 0.0666287 255 255 255 255 
-3.83509 0.478591 2.50829 -0.342709 0.232011 -0.910341 255 255 255 255 
-4.57251 0.968945 2.53411 -0.0367871 -0.661809 -0.748769 255 255 255 255 
-4.39162 1.06535 2.77082 -0.149876 -0.917266 -0.368998 255 255 255 255 
-2.19776 1.12827 2.9012 -0.0339461 -0.47112 -0.881416 255 255 255 255 
-2.47331 1.1628 2.9163 0.223738 -0.513751 0.828252 255 255 255 255 
-3.16044 1.11021 2.98469 -0.278962 -0.421203 0.863 255 255 255 255 
-2.64201 1.15168 2.93173 -0.0395431 -0.614139 -0.788207 255 255 255 255 
-3.27456 1.03339 2.4953 0.0284023 -0.571668 0.819993 255 255 255 255 
-2.65953 1.1347 2.43784 0.155138 -0.923889 0.349801 255 255 255 255 
-1.99055 0.652735 2.27804 -0.758111 -0.133714 -0.638269 255 255 255 255 
-2.2564 1.2473 2.56594 -0.98546 -0.156282 0.0666654 255 255 255 255 
-3.58137 0.999197 2.74946 0.688738 0.514116 0.511199 255 255 255 255 
-2.06088 0.715685 2.28826 -0.524534 -0.601134 -0.602912 255 255 255 255 
-4.94816 0.287144 2.23054 0.569104 0.786227 0.240765 255 255 255 255 
-5.12815 0.264637 2.22762 -0.106899 0.910468 -0.399525 255 255 255 255 
-1.85174 0.261117 2.15265 -0.316452 -0.400175 -0.860069 255 255 255 255 
-5.7029 0.273309 2.02177 -0.242936 0.385153 0.890303 255 255 255 255 
-4.67719 0.367611 2.17215 0.1504 0.962184 -0.227114 255 255 255 255 
-5.30051 0.286628 1.89372 -0.729844 -0.521589 0.441898 255 255 255 255 
-4.4237 0.457 2.05987 -0.782922 0.565656 0.258972 255 255 255 255 
-4.45708 0.311356 1.86705 0.0897944 -0.993916 0.0637741 255 255 255 255 
-5.19984 0.186254 1.79005 -0.120718 -0.934188 0.335737 255 255 255 255 
-1.79922 1.18647 2.5752 0.176312 -0.62751 0.758383 255 255 255 255 
-4.38686 0.312932 2.83677 -0.409208 0.0736929 -0.90946 255 255 255 255 
-4.12136 0.456966 2.78415 -0.22953 -0.292208 -0.928402 255 255 255 255 
-3.77352 0.164862 3.02742 0.0596012 0.444558 0.893765 255 255 255 255 
-3.94466 0.16291 3.02251 -0.120628 -0.67347 0.729306 255 255 255 255 
-3.90258 1.00897 3.04683 0.620014 -0.588784 0.518571 255 255 255 255 
-3.97901 0.88134 2.57435 -0.0881915 0.850043 0.519277 255 255 255 255 
-1.82001 1.19962 2.84419 0.168573 -0.900949 0.399843 255 255 255 255 
-1.93732 1.20172 2.88487 -0.0848706 -0.20808 0.974423 255 255 255 255 
-2.13891 1.13507 2.88056 -0.421827 -0.737946 -0.52678 255 255 255 255 
-2.22927 1.18844 2.90816 -0.941786 -0.283471 -0.180783 255 255 255 255 
-2.20462 1.13786 2.90438 -0.181593 -0.547849 0.816631 255 255 255 255 
-5.76433 0.176717 3.21863 0.613128 0.351298 0.707576 255 255 255 255 
-2.93586 1.14079 2.92263 0.190358 -0.974453 0.119187 255 255 255 255 
-3.72779 1.02013 2.81407 -0.114914 -0.220833 0.968518 255 255 255 255 
-4.32954 0.976811 2.75099 0.688808 -0.0821991 -0.720269 255 255 255 255 
-2.87737 1.13083 2.5304 -0.812596 -0.515032 0.272818 255 255 255 255 
-4.3366 0.907372 2.70464 -0.336574 -0.623581 -0.705595 255 255 255 255 
-2.23649 1.32659 2.37251 -0.970405 0.240826 -0.0177796 255 255 255 255 
-2.2262 1.11295 2.36998 -0.321955 -0.94674 0.0053133 255 255 255 255 
-2.34154 1.10978 2.36692 0.593173 -0.510426 0.622584 255 255 255 255 
-2.92119 1.12318 2.40509 -0.704468 -0.684974 -0.185836 255 255 255 255 
-2.17592 1.07509 2.3319 -0.37506 -0.923031 -0.0856908 255 255 255 255 
-2.20216 1.11155 2.29422 -0.331433 -0.905423 -0.265257 255 255 255 255 
-2.43481 1.11836 2.40233 0.370224 -0.212687 0.904267 255 255 255 255 
-2.25555 1.15687 2.27557 -0.275907 -0.852827 -0.443353 255 255 255 255 
-3.57187 0.5197 2.49444 -0.892378 0.446343 0.0666287 255 255 255 255 
-2.2077 1.12166 2.30398 -0.222291 -0.877482 -0.424985 255 255 255 255 
-5.04466 0.405624 2.31477 0.625014 0.0645437 -0.777941 255 255 255 255 
-5.14309 0.240234 2.17672 -0.0957699 0.954627 -0.281984 255 255 255 255 
-5.34509 0.892103 2.10343 0.292229 0.78549 -0.545535 255 255 255 255 
-2.06194 0.720546 2.29904 -0.344735 -0.579097 -0.738786 255 255 255 255 
-5.03334 0.220567 1.96109 -0.198099 0.184968 -0.962571 255 255 255 255 
-5.51123 0.944512 2.06715 -0.116032 0.721482 -0.682643 255 255 255 255 
-4.54526 0.290705 2.02375 -0.122806 -0.768022 -0.628539 255 255 255 255 
-5.32214 0.192782 1.62657 0.0537091 -0.69176 0.720127 255 255 255 255 
-3.9066 0.291797 1.76143 -0.712123 -0.630739 0.308299 255 255 255 255 
-4.1481 0.979669 2.88267 0.201983 -0.817065 0.540007 255 255 255 255 
-3.72495 0.108797 3.02365 0.079736 0.444458 0.892244 255 255 255 255 
-5.77556 0.358473 3.12784 0.670275 0.592875 0.446353 255 255 255 255 
-4.17444 0.538708 2.78195 0.00758817 0.835062 -0.550103 255 255 255 255 
-4.15383 0.876043 3.13558 -0.124732 -0.555945 -0.821807 255 255 255 255 
-4.67806 0.474819 2.78362 -0.708155 -0.191589 0.679567 255 255 255 255 
-3.56562 0.562049 2.54463 -0.887002 -0.388664 0.249336 255 255 255 255 
-3.89477 0.506957 2.49107 -0.140259 0.851291 -0.5056 255 255 255 255 
-2.36927 1.17052 2.92224 -0.135928 -0.95401 -0.267187 255 255 255 255 
-2.20936 1.15398 2.84729 -0.679107 0.709592 -0.187864 255 255 255 255 
-3.79425 1.07691 2.98523 -0.662382 0.43756 0.608104 255 255 255 255 
-3.61412 1.04784 2.39882 0.366774 0.578654 0.728447 255 255 255 255 
-2.24618 1.10996 2.26315 -0.191899 -0.964408 -0.181915 255 255 255 255 
-3.89924 0.905886 2.48709 -0.204858 0.371043 -0.905738 255 255 255 255 
-1.9847 0.751413 2.21466 -0.661773 -0.329704 -0.673314 255 255 255 255 
-2.19795 1.12924 2.21418 -0.634864 -0.769019 -0.074549 255 255 255 255 
-5.46905 0.711773 1.96598 0.0510728 0.512081 -0.857418 255 255 255 255 
-4.34876 0.29243 1.91079 -0.261562 -0.944518 0.198673 255 255 255 255 
-3.8205 1.00987 1.84373 -0.319492 -0.945353 -0.0650631 255 255 255 255 
-2.85821 0.378057 2.30003 -0.436015 0.0350457 0.899257 255 255 255 255 
-4.7416 0.279045 2.20246 0.0183539 -0.520258 -0.853812 255 255 255 255 
-5.35442 0.685117 1.90029 0.110196 0.285676 -0.95197 255 255 255 255 
-4.15927 0.517562 2.52706 -0.424819 -0.904719 0.0318263 255 255 255 255 
-4.88748 0.119423 3.15893 0.782147 -0.366812 0.503682 255 255 255 255 
-3.77283 0.108124 2.82332 0.243058 -0.913572 0.326052 255 255 255 255 
-3.62807 0.479866 2.8365 0.67669 -0.206975 0.706578 255 255 255 255 
-3.17252 0.24084 2.56967 0.502501 0.787853 0.356063 255 255 255 255 
-4.14324 0.434995 2.42026 -0.24168 -0.0831018 -0.966791 255 255 255 255 
-3.68224 0.523682 2.63 -0.706288 -0.569083 0.421073 255 255 255 255 
-2.26347 1.18089 2.72701 -0.799909 -0.582 0.146363 255 255 255 255 
-2.45557 1.15931 2.88298 -0.0649572 -0.32819 0.942376 255 255 255 255 
-5.67446 0.124972 3.13696 -0.210089 0.972325 0.102205 255 255 255 255 
-5.7073 0.0244646 2.88122 0.0822669 0.144141 -0.986132 255 255 255 255 
-2.20642 1.23673 2.27017 -0.038837 -0.26277 -0.964077 255 255 255 255 
-2.41144 1.08731 2.42341 0.33853 -0.11985 0.933292 255 255 255 255 
-2.33114 0.451537 2.0676 0.845299 -0.249429 -0.472499 255 255 255 255 
-3.35374 1.08469 3.02502 -0.278725 -0.349639 -0.894464 255 255 255 255 
-4.77787 0.995046 2.3964 -0.085496 -0.507971 0.857121 255 255 255 255 
-3.78808 0.301007 2.36641 0.805597 0.19182 0.560552 255 255 255 255 
-3.59952 0.519283 2.72369 0.611252 -0.372636 0.698222 255 255 255 255 
-4.77703 0.873218 2.04985 -0.187942 -0.776247 0.601763 255 255 255 255 
-5.18858 1.18227 3.22844 0.442741 0.715656 0.5402 255 255 255 255 
-3.35447 1.06711 3.12796 -0.192503 -0.952319 -0.236708 255 255 255 255 
-3.92522 0.959651 2.9565 -0.370256 -0.858452 0.354923 255 255 255 255 
-3.66449 1.13199 2.6864 -0.197459 0.90381 0.379655 255 255 255 255 
-4.40596 0.932916 2.71942 0.609556 -0.695263 -0.380854 255 255 255 255 
-3.51411 0.954608 2.42225 0.75033 0.652581 0.10556 255 255 255 255 
-4.10966 0.746422 2.39675 0.791119 0.240386 -0.562446 255 255 255 255 
-4.10732 0.535845 2.43352 -0.15923 -0.774237 -0.612538 255 255 255 255 
-5.44169 0.303408 2.2403 -0.152998 0.473774 0.867254 255 255 255 255 
-5.14118 0.247478 2.17451 -0.0957699 0.954627 -0.281984 255 255 255 255 
-4.55367 0.588127 2.43598 0.378314 0.127484 -0.916857 255 255 255 255 
-4.29548 0.344768 2.16897 -0.494822 -0.851375 0.174104 255 255 255 255 
-2.04735 1.14215 2.86118 0.42448 -0.436196 0.793442 255 255 255 255 
-2.02741 1.14045 2.83507 0.860026 -0.508784 -0.038667 255 255 255 255 
-2.07556 1.13128 2.83912 0.149606 -0.245548 0.95777 255 255 255 255 
-2.21101 1.16207 2.87856 -0.986003 -0.113282 0.122332 255 255 255 255 
-2.09113 1.08251 2.80897 0.698075 -0.678536 -0.228647 255 255 255 255 
-2.16523 1.14935 2.84018 -0.329534 -0.944135 0.0041207 255 255 255 255 
-2.20195 1.09909 2.83739 -0.304954 -0.94541 0.114907 255 255 255 255 
-2.29563 1.14383 2.85922 -0.263735 -0.709369 -0.653636 255 255 255 255 
-2.04782 1.17669 2.7406 0.814849 -0.547811 -0.189536 255 255 255 255 
-2.24507 1.2281 2.9127 -0.361488 0.00773916 -0.932345 255 255 255 255 
-2.31324 1.15502 2.83201 -0.415142 -0.768153 -0.487441 255 255 255 255 
-2.21904 1.15546 2.77795 -0.664955 -0.688884 0.288571 255 255 255 255 
-2.12266 1.11843 2.73731 -0.0516226 -0.981909 -0.182182 255 255 255 255 
-2.21651 1.14494 2.74319 -0.834368 -0.491774 0.248973 255 255 255 255 
-2.221 1.14466 2.7236 -0.834368 -0.491774 0.248973 255 255 255 255 
-2.29707 1.13895 2.82716 -0.263735 -0.709369 -0.653636 255 255 255 255 
-2.12178 1.13799 2.69417 0.0476129 -0.834852 0.548411 255 255 255 255 
-2.18912 0.999678 2.79247 0.320814 -0.306577 0.896152 255 255 255 255 
-2.26538 1.19267 2.55238 -0.984191 -0.153458 0.0884281 255 255 255 255 
-2.303 1.23108 2.44628 -0.676498 -0.457538 0.577069 255 255 255 255 
-2.1673 1.1119 2.3016 -0.603944 -0.796421 0.0310693 255 255 255 255 
-2.19902 1.13532 2.2844 -0.409359 -0.907061 -0.098313 255 255 255 255 
-2.16775 1.07832 2.26637 -0.766313 -0.640116 -0.0549179 255 255 255 255 
-2.30372 1.18287 2.23931 -0.371592 -0.251274 -0.893745 255 255 255 255 
-2.20561 1.13054 2.23715 -0.634864 -0.769019 -0.074549 255 255 255 255 
-2.16506 1.07859 2.22473 -0.533137 -0.844194 0.0556985 255 255 255 255 
-1.98862 0.767982 2.1937 -0.600195 0.214067 -0.770676 255 255 255 255 
-1.99455 0.759497 2.141 -0.492233 0.779953 -0.386496 255 255 255 255 
-4.13657 0.622575 1.98926 0.236372 0.0670707 -0.969345 255 255 255 255 
-3.8378 0.992664 1.89337 -0.288763 -0.954091 -0.079544 255 255 255 255 
-3.58257 0.434951 2.56042 -0.799163 0.284368 -0.529597 255 255 255 255 
-4.01167 0.480386 2.43243 0.521791 -0.375956 -0.765762 255 255 255 255 
-4.74622 1.44 1.74197 0.0163315 -0.385989 -0.922359 255 255 255 255 
-3.87372 0.163772 3.09148 0.0109309 -0.532734 0.846212 255 255 255 255 
-3.87433 0.10064 3.06288 0.0591365 -0.656398 0.752094 255 255 255 255 
-5.51791 0.0528983 3.0045 0.603602 0.772225 0.198326 255 255 255 255 
-5.7078 0.162527 2.94258 0.020082 0.222461 -0.974735 255 255 255 255 
-3.53399 0.304321 2.74782 0.72359 0.503832 0.471773 255 255 255 255 
-4.52103 0.28988 2.34923 0.305305 -0.652775 -0.693307 255 255 255 255 
-4.63387 0.249881 2.32149 0.218116 0.954233 -0.204611 255 255 255 255 
-1.91345 0.1479 2.22436 0.0180384 -0.697114 -0.716733 255 255 255 255 
-2.40578 1.15448 2.92109 -0.240543 -0.856589 0.456503 255 255 255 255 
-2.47213 1.146 2.87319 0.0807052 -0.420481 0.903705 255 255 255 255 
-2.78171 1.13284 2.95696 -0.282323 -0.327847 -0.90156 255 255 255 255 
-2.83598 1.1202 2.90035 -0.780169 -0.596155 -0.189567 255 255 255 255 
-2.50647 1.11188 2.77293 0.85303 -0.521097 -0.0282518 255 255 255 255 
-3.02493 1.1031 2.88051 0.301739 -0.940518 -0.15614 255 255 255 255 
-3.20253 1.01689 2.91645 0.529476 -0.721233 0.44663 255 255 255 255 
-2.7898 1.03834 2.79591 -0.735744 -0.624616 0.261793 255 255 255 255 
-2.51328 1.09875 2.71134 0.392895 -0.903945 0.168867 255 255 255 255 
-2.38861 1.13134 2.64783 0.180308 -0.96287 0.200924 255 255 255 255 
-2.51712 1.09211 2.62142 0.552127 -0.814374 0.178749 255 255 255 255 
-2.84253 1.10121 2.69361 -0.967155 -0.251912 0.0339279 255 255 255 255 
