ply
format ascii 1.0
comment VCGLIB generated
element vertex 676
property float x
property float y
property float z
property float nx
property float ny
property float nz
property uchar red
property uchar green
property uchar blue
property uchar alpha
element face 0
property list uchar int vertex_indices
end_header
1.38512 1.10714 2.34144 -0.048399 -0.875513 0.480765 255 255 255 255 
1.35562 1.11792 2.29022 -0.666137 0.660342 -0.346714 255 255 255 255 
1.32521 1.00986 2.25461 0.0622615 0.70288 -0.708578 255 255 255 255 
1.2311 0.93536 2.31759 -0.339644 -0.929502 -0.143764 255 255 255 255 
1.2784 1.10364 2.17201 -0.822607 -0.270342 0.500232 255 255 255 255 
1.30657 1.01666 2.57614 -0.955991 0.285258 -0.0686288 255 255 255 255 
1.43521 1.10636 2.26231 -0.118582 -0.622836 -0.773313 255 255 255 255 
1.3877 1.09329 2.27045 -0.418016 -0.894518 -0.158434 255 255 255 255 
1.37906 1.10388 2.25283 -0.801455 -0.466162 0.374651 255 255 255 255 
1.42939 1.08452 2.27533 -0.54745 -0.8272 -0.126645 255 255 255 255 
1.419 1.10677 2.25903 0.415437 -0.806507 -0.420665 255 255 255 255 
1.3314 1.08256 2.49149 -0.939563 0.0931293 0.329467 255 255 255 255 
1.36529 1.12 2.38786 0.0208088 -0.901692 -0.431878 255 255 255 255 
1.31179 1.07218 2.5293 -0.876983 0.366559 -0.3107 255 255 255 255 
1.39449 1.09522 2.23204 -0.247731 -0.897399 -0.365109 255 255 255 255 
1.3444 1.10077 2.37043 -0.703629 0.685049 -0.18872 255 255 255 255 
1.32796 1.11314 2.54161 0.702155 -0.69702 -0.145404 255 255 255 255 
1.39917 1.09533 2.29691 -0.985483 0.10552 0.132997 255 255 255 255 
1.33316 1.07518 2.34729 0.593947 -0.697359 -0.401146 255 255 255 255 
1.3773 1.10471 2.25392 -0.565047 0.592498 -0.574167 255 255 255 255 
1.34441 1.12702 2.23486 -0.486136 -0.61396 0.621873 255 255 255 255 
1.22441 0.932697 2.42513 0.207647 -0.977746 0.0299144 255 255 255 255 
1.22242 0.930658 2.39208 0.0589988 -0.997942 0.0251275 255 255 255 255 
1.29433 1.02294 2.21539 -0.975439 0.158511 0.152949 255 255 255 255 
1.29794 1.01388 2.21018 -0.901367 0.01314 -0.432856 255 255 255 255 
1.23918 0.932991 2.35859 -0.571513 -0.818966 -0.0516388 255 255 255 255 
1.36178 1.12622 2.22456 -0.93813 0.279363 -0.20462 255 255 255 255 
1.26214 0.955916 2.21894 -0.155884 -0.795267 0.585876 255 255 255 255 
1.28028 1.08533 2.18062 -0.796653 -0.59054 0.128864 255 255 255 255 
1.16316 1.09728 2.15482 0.250357 0.58574 -0.770863 255 255 255 255 
1.33921 1.10215 2.39298 0.1732 -0.861917 0.476552 255 255 255 255 
1.31766 1.06538 2.34058 0.803132 -0.0769717 -0.590808 255 255 255 255 
1.23393 0.976307 2.19445 -0.241532 -0.968255 -0.0643819 255 255 255 255 
1.11755 0.979603 2.17747 -0.909333 0.409997 -0.0708198 255 255 255 255 
1.44692 1.11016 2.25389 0.0747056 0.209812 -0.974884 255 255 255 255 
1.43588 1.07946 2.31762 -0.715249 -0.578604 -0.391964 255 255 255 255 
1.43949 1.10845 2.27938 -0.670696 0.5506 -0.496998 255 255 255 255 
1.43661 1.09923 2.2746 0.19355 0.539523 -0.819423 255 255 255 255 
1.3901 1.11262 2.37416 -0.434644 -0.164755 -0.885404 255 255 255 255 
1.36628 1.10177 2.39096 -0.707392 -0.504397 0.495158 255 255 255 255 
1.35427 1.11139 2.43612 -0.364156 -0.928792 -0.0688091 255 255 255 255 
1.39541 1.11039 2.28693 -0.344279 -0.931919 -0.114011 255 255 255 255 
1.39707 1.09455 2.27059 0.496789 -0.57926 -0.646265 255 255 255 255 
1.34163 1.1066 2.45134 -0.157829 -0.987233 -0.0214711 255 255 255 255 
1.37095 1.09441 2.3249 0.649659 -0.737907 -0.182858 255 255 255 255 
1.40406 1.13921 2.24619 0.215505 -0.976309 0.0194367 255 255 255 255 
1.37086 1.12041 2.26919 0.387239 0.374055 -0.842692 255 255 255 255 
1.35243 1.09044 2.29081 -0.673878 -0.66278 -0.326514 255 255 255 255 
1.38737 1.08566 2.25622 -0.979687 -0.172903 0.101578 255 255 255 255 
1.34819 1.10278 2.25269 -0.611325 -0.52636 0.590954 255 255 255 255 
1.33251 1.05848 2.35668 -0.930115 0.310851 0.195596 255 255 255 255 
1.33693 1.11808 2.25292 0.442306 0.531578 -0.72235 255 255 255 255 
1.24792 0.935605 2.4857 0.0954413 -0.994033 0.0528193 255 255 255 255 
1.26375 0.946097 2.26635 -0.583222 -0.695577 0.419553 255 255 255 255 
1.12401 0.98919 2.16348 0.637456 -0.769492 0.0391417 255 255 255 255 
1.4048 1.10384 2.31717 -0.543929 0.399753 -0.737794 255 255 255 255 
1.3452 1.11786 2.43755 -0.607139 -0.598529 -0.522634 255 255 255 255 
1.36561 1.12521 2.23752 0.061803 0.14166 -0.987984 255 255 255 255 
1.35247 1.11311 2.2473 0.293233 -0.952081 0.0869242 255 255 255 255 
1.32273 1.03819 2.3081 -0.934318 0.257994 0.245944 255 255 255 255 
1.34028 1.09974 2.33822 -0.506234 0.652522 -0.563864 255 255 255 255 
1.32469 1.08642 2.22979 -0.788691 -0.250318 0.561523 255 255 255 255 
1.28405 0.959304 2.24405 0.320044 -0.10339 -0.941744 255 255 255 255 
1.29928 1.0948 2.21527 0.418306 -0.0406836 -0.907395 255 255 255 255 
1.23311 0.93785 2.34748 -0.120759 -0.973081 0.196294 255 255 255 255 
1.27776 0.958411 2.22799 -0.224769 -0.193978 -0.954909 255 255 255 255 
1.28936 0.979959 2.20262 -0.843311 0.536735 0.0272454 255 255 255 255 
1.28186 0.972961 2.20637 0.343117 -0.92408 -0.168363 255 255 255 255 
1.23073 0.937686 2.33175 -0.412296 -0.904908 -0.10561 255 255 255 255 
1.11115 0.968043 2.20591 -0.368851 0.570209 -0.734037 255 255 255 255 
0.412494 2.11342 2.50591 -0.511032 -0.00579036 -0.859542 255 255 255 255 
1.31289 1.05696 2.50327 -0.999931 -0.0117154 9.80354e-05 255 255 255 255 
1.12162 0.991349 2.17042 0.791832 -0.609214 0.0431248 255 255 255 255 
1.36299 1.10294 2.25435 -0.949411 0.288777 0.123397 255 255 255 255 
1.38229 1.11993 2.29603 -0.905992 -0.271753 -0.324544 255 255 255 255 
1.37043 1.09637 2.26385 0.299016 0.0702817 -0.951656 255 255 255 255 
1.35228 1.09023 2.31646 -0.774635 -0.541764 -0.326238 255 255 255 255 
1.32323 1.1024 2.38829 0.198606 -0.927115 0.317826 255 255 255 255 
1.39492 1.10925 2.23714 -0.377359 0.152614 -0.913405 255 255 255 255 
1.35517 1.10282 2.25618 0.123363 0.323789 -0.938052 255 255 255 255 
1.34313 0.949886 2.2448 0.35929 -0.89123 -0.276802 255 255 255 255 
1.3228 1.08143 2.32135 -0.0925588 -0.695982 -0.712068 255 255 255 255 
1.32901 1.11722 2.31671 0.588335 -0.758523 -0.280188 255 255 255 255 
1.37521 1.1279 2.25432 -0.798527 -0.210801 0.563841 255 255 255 255 
1.34346 1.12013 2.23888 0.400098 -0.68123 -0.613064 255 255 255 255 
1.33001 1.06961 2.21801 0.553035 0.149499 -0.819635 255 255 255 255 
1.29811 1.00535 2.20964 -0.8642 0.0377908 -0.501727 255 255 255 255 
1.26724 0.953727 2.23688 -0.370506 -0.117202 -0.921406 255 255 255 255 
1.2836 0.984455 2.18431 -0.974242 0.0580189 -0.217913 255 255 255 255 
1.2293 0.929144 2.35225 0.481261 -0.807797 -0.340369 255 255 255 255 
1.27066 0.972246 2.16637 0.559755 -0.438845 -0.702915 255 255 255 255 
1.13316 0.96333 2.20123 -0.585505 -0.76975 0.2543 255 255 255 255 
1.12424 1.1221 2.1632 -0.391918 -0.802839 0.449277 255 255 255 255 
1.03066 1.45907 2.12556 -0.860663 0.131677 -0.491854 255 255 255 255 
0.588758 2.0672 2.40926 -0.15662 -0.87692 0.454403 255 255 255 255 
0.340193 2.14802 2.5969 -0.878514 -0.458893 0.132778 255 255 255 255 
0.477876 2.16195 2.45482 0.44348 -0.886908 -0.129304 255 255 255 255 
0.304828 2.10819 2.62996 0.0192653 -0.92112 -0.388802 255 255 255 255 
1.04125 1.13713 2.12433 -0.109401 -0.805589 0.582287 255 255 255 255 
1.07331 1.11196 2.11633 -0.501649 -0.833854 -0.230295 255 255 255 255 
1.01917 1.189 2.1343 -0.215162 0.428028 -0.87778 255 255 255 255 
1.03415 1.16046 2.13594 0.872093 -0.132604 -0.471031 255 255 255 255 
0.34476 2.12191 2.54652 -0.839011 0.112244 -0.532412 255 255 255 255 
1.07835 1.11244 2.09699 -0.483472 -0.266447 -0.833823 255 255 255 255 
0.41154 2.20093 2.44316 0.116873 -0.987206 -0.108463 255 255 255 255 
1.32089 0.93744 2.52394 0.27465 -0.961367 -0.0184879 255 255 255 255 
1.33483 1.04908 2.23389 -0.697452 0.0946308 -0.710356 255 255 255 255 
1.31807 1.03888 2.35338 -0.741285 0.640782 -0.199736 255 255 255 255 
1.00745 1.18867 2.14529 -0.781305 -0.548644 0.297577 255 255 255 255 
0.532593 2.15185 2.48126 -0.81738 -0.45682 -0.351007 255 255 255 255 
0.440538 2.0376 2.62093 -0.158091 -0.979111 0.127861 255 255 255 255 
0.298404 2.09519 2.675 -0.200571 -0.940918 0.272847 255 255 255 255 
0.17772 2.12328 2.73796 -0.558904 -0.734387 0.3851 255 255 255 255 
0.354149 2.07553 2.51733 -0.591919 0.524964 -0.611592 255 255 255 255 
0.250075 2.1198 2.59312 -0.175691 -0.266698 -0.947631 255 255 255 255 
1.40791 1.12452 2.28405 0.365411 -0.823826 -0.433342 255 255 255 255 
1.3859 1.1245 2.23517 -0.266454 0.325762 -0.907128 255 255 255 255 
1.37435 1.11474 2.26833 0.78386 0.0235116 -0.620493 255 255 255 255 
1.36267 1.12014 2.24225 -0.83902 0.0300387 -0.543271 255 255 255 255 
1.32345 1.05117 2.35107 0.164748 -0.977251 0.133562 255 255 255 255 
1.28852 0.967301 2.21467 -0.41908 -0.907142 -0.0382686 255 255 255 255 
1.29029 0.967864 2.22422 0.250959 -0.789904 -0.559528 255 255 255 255 
1.14356 1.10348 2.15747 0.75519 -0.643817 0.123241 255 255 255 255 
0.556017 2.1221 2.48587 -0.137253 -0.636929 -0.758606 255 255 255 255 
0.618095 2.05115 2.46978 -0.631477 -0.488764 0.601953 255 255 255 255 
0.302506 2.12045 2.7007 0.693283 -0.711069 -0.117217 255 255 255 255 
0.355953 2.06156 2.69015 -0.396706 -0.758833 0.516524 255 255 255 255 
0.473498 2.09455 2.5024 0.0193583 0.213582 -0.976733 255 255 255 255 
0.413271 2.1302 2.53032 -0.260366 0.416056 -0.871267 255 255 255 255 
0.461386 2.1411 2.47464 -0.628117 -0.240138 -0.740137 255 255 255 255 
0.250874 2.10346 2.69504 -0.0478027 -0.825361 0.562579 255 255 255 255 
0.38331 2.07275 2.54848 -0.612978 -0.551414 -0.565863 255 255 255 255 
0.362973 2.12372 2.54641 -0.745873 0.259281 -0.613553 255 255 255 255 
1.02653 1.19227 2.12898 0.244261 0.426585 -0.87084 255 255 255 255 
1.06158 1.12726 2.12195 -0.955782 0.0341176 0.292092 255 255 255 255 
0.384065 2.06025 2.47257 -0.301445 0.407271 -0.862126 255 255 255 255 
0.417284 2.13368 2.41833 -0.295929 -0.955022 0.0189718 255 255 255 255 
1.31309 1.05647 2.50168 -0.999931 -0.0117154 9.80354e-05 255 255 255 255 
1.34516 1.12301 2.28312 -0.0398623 -0.896144 -0.44197 255 255 255 255 
1.24351 0.930281 2.43075 -0.219946 -0.948289 0.228847 255 255 255 255 
1.32832 1.11768 2.55609 0.795294 -0.605748 -0.0240138 255 255 255 255 
1.33153 1.11936 2.2881 -0.502801 -0.861088 0.0756203 255 255 255 255 
1.33377 1.06579 2.22355 0.728794 0.158285 -0.666187 255 255 255 255 
1.29923 1.02044 2.20739 -0.940589 -0.209427 -0.26727 255 255 255 255 
1.27776 0.969902 2.23629 0.412486 -0.907567 -0.0786024 255 255 255 255 
1.28282 0.972547 2.17135 0.559755 -0.438845 -0.702914 255 255 255 255 
1.12688 0.981509 2.17565 0.700685 -0.665194 -0.257988 255 255 255 255 
0.543919 2.10151 2.52246 0.629751 -0.0970184 -0.770715 255 255 255 255 
0.362 2.13381 2.65641 -0.620218 -0.719163 0.313264 255 255 255 255 
0.332721 2.2154 2.48008 -0.408919 -0.758124 -0.507969 255 255 255 255 
0.279978 2.13081 2.65155 0.629532 -0.776006 -0.0387845 255 255 255 255 
1.36769 1.0994 2.25156 -0.182986 -0.694305 -0.69603 255 255 255 255 
1.14409 0.999499 2.14707 -0.440126 -0.45551 -0.773821 255 255 255 255 
1.35531 1.07704 2.319 -0.48603 -0.862034 0.14378 255 255 255 255 
1.32913 1.05101 2.36504 0.868094 -0.449614 -0.210382 255 255 255 255 
1.28614 0.97476 2.19323 -0.93911 0.299538 -0.168375 255 255 255 255 
0.56151 2.18614 2.48385 -0.731783 -0.656543 0.182877 255 255 255 255 
0.477989 2.16553 2.43265 -0.73036 -0.0478826 -0.681382 255 255 255 255 
1.3909 1.09224 2.27204 -0.499816 -0.856169 0.13099 255 255 255 255 
1.39331 1.11173 2.26006 0.460122 -0.394901 -0.795199 255 255 255 255 
1.36943 1.09391 2.30697 0.451926 -0.880391 0.143784 255 255 255 255 
1.35783 1.11353 2.25783 -0.0156823 -0.872413 0.488517 255 255 255 255 
1.32477 1.09213 2.38941 0.016532 0.763485 -0.645614 255 255 255 255 
1.32418 1.12674 2.29168 -0.392889 -0.876258 -0.278945 255 255 255 255 
1.31591 0.963093 2.22259 -0.0656649 -0.842675 0.534403 255 255 255 255 
1.27196 0.941705 2.25052 -0.0974136 -0.944144 -0.314805 255 255 255 255 
0.418621 2.04865 2.67062 -0.38155 -0.824677 0.417526 255 255 255 255 
0.242018 2.11355 2.70368 0.105748 -0.800285 0.590221 255 255 255 255 
1.38162 1.12067 2.27358 -0.218376 -0.879485 0.422868 255 255 255 255 
1.31858 1.12734 2.24194 -0.591952 -0.759306 0.270274 255 255 255 255 
0.62753 1.44269 2.8069 -0.875981 -0.16954 -0.451567 255 255 255 255 
0.383185 2.1963 2.71439 -0.9544 -0.243478 0.172742 255 255 255 255 
1.08341 1.10874 2.11383 -0.580521 -0.234416 -0.779772 255 255 255 255 
1.38357 1.10871 2.38927 -0.78278 -0.159859 -0.601416 255 255 255 255 
0.349713 2.11483 2.57517 -0.901912 -0.262044 -0.343349 255 255 255 255 
1.36712 1.11284 2.26171 -0.419947 -0.901064 0.1083 255 255 255 255 
1.34624 1.10779 2.28087 -0.943637 0.274785 -0.184507 255 255 255 255 
1.3379 1.102 2.28975 -0.629457 -0.776385 0.0317936 255 255 255 255 
0.607148 2.03902 2.45307 -0.0953235 -0.992257 -0.0796243 255 255 255 255 
0.472616 2.00982 2.62241 0.0610162 -0.99683 -0.0510687 255 255 255 255 
0.210016 2.15232 2.72869 0.546085 0.215681 -0.809489 255 255 255 255 
1.3422 1.11165 2.44404 -0.412302 -0.803783 -0.428882 255 255 255 255 
1.01644 1.41265 2.12198 -0.9091 -0.144362 0.390764 255 255 255 255 
0.335 2.13249 2.58498 -0.816989 -0.242877 -0.52301 255 255 255 255 
0.668667 2.14033 2.43421 -0.468481 -0.883456 -0.00561106 255 255 255 255 
0.552319 2.03601 2.3671 0.00284529 -0.980442 0.196789 255 255 255 255 
0.5097 2.11924 2.3721 -0.874344 0.134502 -0.466296 255 255 255 255 
1.35676 1.08633 2.29651 -0.0555155 -0.998065 0.0280183 255 255 255 255 
1.34647 1.11269 2.25659 -0.896519 -0.435705 0.0800876 255 255 255 255 
0.764638 2.05514 2.38826 0.899289 0.0702278 -0.431681 255 255 255 255 
0.475608 2.02281 2.64372 0.00418118 -0.963869 0.266345 255 255 255 255 
0.309695 2.23543 2.75956 0.631421 -0.620255 0.465395 255 255 255 255 
0.42703 2.16589 2.54436 0.720509 -0.096144 -0.686749 255 255 255 255 
1.41539 1.09447 2.27541 -0.685637 -0.711492 0.153886 255 255 255 255 
0.291722 2.18883 2.62025 -0.141057 -0.989902 -0.0139951 255 255 255 255 
1.38242 1.10901 2.3899 -0.735469 -0.16852 -0.656267 255 255 255 255 
0.324803 2.17974 2.68928 -0.662728 -0.446159 -0.601443 255 255 255 255 
1.26928 0.951646 2.23651 0.160605 0.0805506 -0.983726 255 255 255 255 
1.31781 0.959493 2.23634 0.483592 -0.868477 -0.10903 255 255 255 255 
0.395431 2.13505 2.51952 -0.329578 -0.297695 -0.895966 255 255 255 255 
1.32486 1.12347 2.28244 -0.904196 0.421503 -0.0690259 255 255 255 255 
0.679658 2.16316 2.48606 0.126423 -0.991975 0.00173991 255 255 255 255 
1.02052 1.47888 2.14115 -0.860663 0.131677 -0.491854 255 255 255 255 
1.02613 1.17253 2.12636 -0.561886 -0.0658878 -0.824586 255 255 255 255 
0.648065 2.16974 2.40514 -0.533244 -0.57919 0.616595 255 255 255 255 
0.42271 2.22334 2.5321 0.607172 0.302751 -0.734632 255 255 255 255 
0.376334 2.15683 2.69205 0.610669 0.313776 -0.727068 255 255 255 255 
0.432258 2.02832 2.45915 -0.229551 -0.958199 -0.170766 255 255 255 255 
0.530772 2.03272 2.47521 -0.140025 0.374105 -0.916754 255 255 255 255 
1.29233 0.983434 2.17309 -0.602414 0.59768 -0.529034 255 255 255 255 
0.210155 2.15048 2.72699 0.427062 0.410304 -0.805772 255 255 255 255 
1.12293 0.967914 2.19415 -0.783556 -0.606777 0.133651 255 255 255 255 
1.08422 1.11838 2.10151 -0.580521 -0.234416 -0.779772 255 255 255 255 
1.08737 1.10474 2.10245 -0.580521 -0.234416 -0.779772 255 255 255 255 
0.71134 2.03683 2.29539 0.288391 -0.899171 -0.329123 255 255 255 255 
0.682379 2.00285 2.276 0.586734 -0.809147 -0.0320218 255 255 255 255 
0.39675 2.16118 2.43228 -0.736268 -0.661526 0.142451 255 255 255 255 
0.395085 2.133 2.51903 -0.329578 -0.297695 -0.895966 255 255 255 255 
0.592399 2.09235 2.5858 0.156339 -0.770459 0.618021 255 255 255 255 
0.704204 2.0503 2.27071 0.819078 -0.515529 0.251676 255 255 255 255 
0.674564 2.03754 2.26705 0.586734 -0.809147 -0.0320218 255 255 255 255 
0.680286 1.99411 2.59218 -0.467996 -0.856045 0.219468 255 255 255 255 
0.723336 2.04927 2.46402 -0.428603 -0.6231 -0.654252 255 255 255 255 
0.71543 2.0704 2.23463 0.776427 -0.629329 0.0332627 255 255 255 255 
0.689971 2.03819 2.28164 0.819078 -0.515529 0.251677 255 255 255 255 
0.353076 2.06157 2.61005 -0.834066 -0.527241 -0.162327 255 255 255 255 
0.957415 1.9589 2.22849 -0.820788 -0.33026 -0.466085 255 255 255 255 
0.852532 2.05534 2.21065 0.472695 -0.864275 0.172013 255 255 255 255 
0.833086 2.04111 2.21622 0.386336 -0.768457 -0.510117 255 255 255 255 
0.415388 2.01844 2.44399 0.0279091 -0.976988 -0.211458 255 255 255 255 
0.620357 2.03331 2.15222 0.479004 -0.730131 0.487304 255 255 255 255 
0.619523 2.03671 2.18868 0.469066 -0.879452 0.0808786 255 255 255 255 
0.486397 2.00434 2.31373 0.516899 -0.853987 -0.0593524 255 255 255 255 
0.373295 2.0287 2.4741 -0.645554 -0.442453 -0.622491 255 255 255 255 
0.427718 2.10825 2.51468 -0.443285 -0.344473 -0.827549 255 255 255 255 
0.272963 1.9428 2.59595 0.340166 -0.890254 0.302878 255 255 255 255 
0.503021 1.96948 2.47672 0.0260964 -0.163139 -0.986258 255 255 255 255 
0.749071 1.95363 2.24985 0.15518 -0.966039 0.206612 255 255 255 255 
0.414479 1.96177 2.48607 -0.13389 -0.645432 -0.751991 255 255 255 255 
0.700708 2.05779 2.21451 -0.134792 -0.986199 -0.0961337 255 255 255 255 
0.425653 1.91671 2.39799 -0.930541 -0.334031 0.150056 255 255 255 255 
0.868609 1.97442 2.1521 -0.707968 0.251486 -0.659951 255 255 255 255 
0.859467 2.05169 2.21074 0.472695 -0.864275 0.172013 255 255 255 255 
0.759194 2.04516 2.17813 -0.209207 -0.922351 0.324811 255 255 255 255 
0.828754 2.05662 2.15992 -0.173232 -0.962882 0.206999 255 255 255 255 
0.614394 2.03402 2.11085 -0.00608114 -0.99804 -0.06229 255 255 255 255 
0.988613 2.0104 2.17673 -0.880828 -0.0914585 -0.464518 255 255 255 255 
0.779894 2.02615 1.96102 0.198861 -0.979458 -0.0334027 255 255 255 255 
0.619491 2.04493 1.99041 0.307352 -0.0902655 -0.947305 255 255 255 255 
1.08441 1.96162 2.06063 -0.486096 0.598921 -0.636399 255 255 255 255 
0.996312 1.95853 2.06248 -0.916118 -0.193545 0.351095 255 255 255 255 
0.967457 1.95395 1.99273 0.798233 -0.0255919 -0.601805 255 255 255 255 
0.908435 1.99057 2.06418 0.117683 -0.421871 -0.898986 255 255 255 255 
0.922983 2.04267 2.02149 -0.0120213 -0.969137 0.246229 255 255 255 255 
0.840523 1.95784 2.07587 0.839768 -0.507296 -0.193496 255 255 255 255 
0.909629 1.92838 1.94188 0.482137 -0.0644091 -0.873725 255 255 255 255 
0.860585 2.02366 1.96149 0.0326664 -0.907941 0.417823 255 255 255 255 
0.827701 2.04134 1.96741 -0.0251935 -0.986322 0.162893 255 255 255 255 
0.797835 1.94527 1.99821 0.766179 -0.345793 -0.541661 255 255 255 255 
0.772089 2.03972 1.94932 0.0538671 -0.991033 0.122281 255 255 255 255 
0.682868 1.96664 2.03259 -0.12776 0.520177 -0.844448 255 255 255 255 
0.727059 2.04751 2.01644 -0.878444 -0.474185 -0.0590252 255 255 255 255 
0.749253 1.96926 1.89802 -0.992618 -0.121259 0.00235597 255 255 255 255 
0.54009 2.05012 2.02893 -0.401791 -0.913462 -0.0644257 255 255 255 255 
0.541691 2.05917 2.00293 0.23765 -0.0867134 -0.967473 255 255 255 255 
0.620569 2.01609 2.00618 0.35246 -0.284586 -0.891506 255 255 255 255 
0.491166 2.06084 2.01364 0.365127 -0.312061 -0.877098 255 255 255 255 
0.639875 1.94573 1.90714 0.406008 0.429499 -0.806652 255 255 255 255 
0.270722 2.10303 2.70263 0.340856 -0.899064 0.274774 255 255 255 255 
1.0167 1.91541 2.15325 -0.859702 -0.0796692 -0.504544 255 255 255 255 
0.775818 2.00771 2.39159 -0.491397 -0.861907 -0.125083 255 255 255 255 
0.611661 2.00256 2.29796 0.133087 -0.991081 -0.00687216 255 255 255 255 
0.206452 1.9838 2.63723 0.265029 -0.724944 0.63578 255 255 255 255 
0.433075 1.97053 2.32112 0.675947 -0.736488 -0.0260828 255 255 255 255 
0.881161 2.11081 2.22335 -0.0228057 0.342211 -0.939346 255 255 255 255 
0.873585 2.04614 2.08911 0.146921 -0.988782 -0.0269125 255 255 255 255 
0.505291 2.01919 2.31961 0.434073 -0.880367 0.191142 255 255 255 255 
1.0773 2.00602 2.10228 -0.887508 -0.160094 -0.432087 255 255 255 255 
1.04 2.07924 2.13871 -0.42397 0.213166 -0.880233 255 255 255 255 
1.04719 2.03859 2.118 -0.290333 0.0473793 -0.955752 255 255 255 255 
1.01288 2.037 2.14144 -0.81369 0.0776496 -0.576089 255 255 255 255 
1.01726 2.03235 2.11567 -0.388535 -0.69569 -0.604198 255 255 255 255 
0.930947 2.05492 2.0858 0.217274 -0.972657 -0.0820332 255 255 255 255 
0.870142 2.05494 2.02862 -0.166157 -0.983897 0.0658679 255 255 255 255 
0.706683 2.04265 2.17463 -0.420732 -0.843051 0.335037 255 255 255 255 
0.789537 2.05832 2.05869 0.623545 -0.663342 0.413726 255 255 255 255 
0.7506 2.03861 2.11367 0.228557 -0.961389 -0.153275 255 255 255 255 
0.83281 2.03844 2.11322 -0.11476 -0.983007 -0.14327 255 255 255 255 
0.749644 2.05962 2.10962 0.418244 -0.904085 0.0877606 255 255 255 255 
0.816238 2.05792 2.00342 0.439385 -0.700627 0.562194 255 255 255 255 
0.817931 2.03723 1.98599 -0.0251935 -0.986322 0.162893 255 255 255 255 
0.753935 2.01789 2.05091 -0.370347 -0.928079 0.038882 255 255 255 255 
0.759215 2.03085 1.99176 -0.278983 -0.960257 -0.00864903 255 255 255 255 
0.544868 2.01053 2.17292 0.0241104 -0.984589 -0.173215 255 255 255 255 
0.649886 1.97886 2.05 -0.397287 -0.886862 0.235879 255 255 255 255 
0.530675 2.05357 2.19608 0.198092 -0.972114 -0.125513 255 255 255 255 
0.398808 1.99886 2.20644 -0.226698 -0.971888 -0.0635741 255 255 255 255 
1.01606 1.991 2.14928 -0.843622 -0.0691752 -0.532464 255 255 255 255 
0.973637 2.00098 2.21875 -0.792487 -0.223894 -0.567306 255 255 255 255 
0.9023 2.05515 2.21836 0.116569 -0.863086 -0.491421 255 255 255 255 
0.528126 2.03367 2.10129 0.864567 -0.421928 0.272947 255 255 255 255 
0.618321 2.00819 2.07127 -0.305527 -0.946635 0.102645 255 255 255 255 
0.403147 2.02383 2.12754 0.268655 -0.937977 -0.219143 255 255 255 255 
0.428409 2.03923 2.10739 0.134154 -0.982587 -0.128553 255 255 255 255 
0.239623 2.03313 2.26605 -0.0144039 -0.999444 -0.0300675 255 255 255 255 
0.320188 2.03391 2.17668 -0.0306 -0.927106 -0.373547 255 255 255 255 
0.996238 1.98834 2.18433 -0.85157 -0.0176005 -0.523946 255 255 255 255 
0.824809 2.02868 2.29654 -0.539017 -0.798714 -0.267425 255 255 255 255 
0.95445 1.99807 1.98476 -0.745923 -0.377514 0.548709 255 255 255 255 
0.799153 2.01656 2.1859 0.417688 -0.90738 0.0468969 255 255 255 255 
0.76145 2.03139 1.9302 0.762861 -0.349572 -0.543915 255 255 255 255 
0.497069 2.01361 2.01255 0.28381 0.149204 -0.947201 255 255 255 255 
0.525934 1.99716 2.08525 0.647248 -0.760998 -0.0441814 255 255 255 255 
0.566904 2.03165 1.92123 -0.143692 -0.958877 0.244761 255 255 255 255 
0.27535 2.02221 2.16591 0.00230251 -0.873832 -0.486222 255 255 255 255 
0.295896 2.028 2.14576 0.366371 -0.916611 -0.159988 255 255 255 255 
0.314051 2.03342 2.12574 0.0510905 -0.974392 0.218974 255 255 255 255 
0.463797 2.01963 2.0009 0.215401 -0.848294 0.483736 255 255 255 255 
0.554509 2.02458 2.01055 0.0935995 0.230779 -0.968494 255 255 255 255 
0.239546 2.0141 2.16499 -0.357736 -0.923705 -0.137094 255 255 255 255 
0.543634 2.02219 2.18211 0.0241104 -0.984589 -0.173215 255 255 255 255 
0.978915 1.99158 2.01735 -0.952413 0.0208975 0.304092 255 255 255 255 
0.998097 1.77115 2.17807 -0.838509 0.0395485 -0.54345 255 255 255 255 
0.938578 1.9863 2.26736 -0.576404 -0.659054 -0.48312 255 255 255 255 
0.826361 2.05164 2.14165 0.582374 -0.810321 0.0649673 255 255 255 255 
1.01244 1.89002 2.1713 -0.99595 -0.0160627 -0.0884642 255 255 255 255 
0.867731 1.97674 2.34647 -0.791906 -0.288753 -0.538058 255 255 255 255 
0.972329 2.05234 2.10257 -0.168588 -0.985284 -0.0281589 255 255 255 255 
0.501137 2.03226 2.38326 -0.942795 -0.15047 0.297483 255 255 255 255 
0.758582 2.0402 2.04901 -0.370347 -0.928079 0.038882 255 255 255 255 
0.391026 2.01828 2.48257 -0.342639 -0.715091 -0.609298 255 255 255 255 
0.499125 2.02484 2.36076 0.660936 -0.652808 0.370144 255 255 255 255 
0.269128 2.01628 2.4361 0.300354 -0.919473 -0.253687 255 255 255 255 
0.635027 2.02125 2.00909 0.35246 -0.284586 -0.891506 255 255 255 255 
0.241601 2.02556 2.3949 0.176218 -0.974154 -0.141322 255 255 255 255 
0.192512 2.01706 2.43261 0.19691 -0.921275 -0.33538 255 255 255 255 
1.06191 1.7128 2.11009 -0.956454 -0.0760012 -0.281814 255 255 255 255 
0.955823 2.0659 2.18746 -0.556099 -0.242202 -0.795043 255 255 255 255 
0.63654 2.04904 2.57578 -0.855517 -0.295246 0.425348 255 255 255 255 
0.79509 2.03579 2.29468 -0.0237303 -0.990477 0.135618 255 255 255 255 
0.51595 2.04082 2.48657 -0.0546785 0.530846 -0.845703 255 255 255 255 
0.455355 2.01891 2.4867 0.145257 -0.211977 -0.966419 255 255 255 255 
0.138012 2.00535 2.4058 -0.0129384 -0.988436 -0.151087 255 255 255 255 
0.146931 1.99654 2.38172 -0.0568054 -0.983059 -0.174263 255 255 255 255 
0.14346 2.03711 2.49545 -0.632009 -0.774642 -0.0222454 255 255 255 255 
0.254915 2.02198 2.39288 0.176218 -0.974154 -0.141322 255 255 255 255 
0.0515327 1.98851 2.43175 0.0279623 -0.984005 0.175935 255 255 255 255 
0.151674 2.0019 2.33942 -0.0351442 -0.999022 -0.0268383 255 255 255 255 
0.167478 2.03202 2.31437 0.201284 -0.977592 -0.0616379 255 255 255 255 
0.795729 2.0255 2.43518 -0.754189 0.185128 -0.630021 255 255 255 255 
0.748439 2.03206 2.34117 0.682461 -0.512515 -0.521129 255 255 255 255 
0.317422 2.026 2.28052 -0.180605 -0.979321 0.0911752 255 255 255 255 
0.213977 2.03991 2.24 -0.0414125 -0.997328 -0.0601826 255 255 255 255 
0.428593 2.01924 2.04624 0.212966 -0.976124 0.0427442 255 255 255 255 
0.152183 2.01402 2.32451 0.136905 -0.990532 0.0102213 255 255 255 255 
0.747027 2.02946 2.48572 -0.553369 0.495245 -0.669713 255 255 255 255 
0.520808 2.04682 2.58414 0.462967 -0.814821 -0.348896 255 255 255 255 
0.602736 2.01317 2.38184 -0.167184 -0.958907 0.229231 255 255 255 255 
0.916151 2.03897 1.98977 -0.269824 -0.921608 0.278986 255 255 255 255 
0.819517 2.07611 2.04503 0.512606 -0.662459 0.546244 255 255 255 255 
0.731318 2.04424 2.13871 -0.147352 -0.988891 -0.0195596 255 255 255 255 
0.821989 2.04034 2.02668 0.11839 -0.948277 0.294541 255 255 255 255 
0.791914 2.03703 2.02927 0.459257 -0.84915 0.26082 255 255 255 255 
0.407161 2.00087 2.46809 -0.13389 -0.645432 -0.751991 255 255 255 255 
0.497481 2.02829 2.15642 -0.02107 -0.999719 0.0109021 255 255 255 255 
0.485905 1.99531 2.25114 0.334872 -0.936993 -0.0995238 255 255 255 255 
0.540114 2.02883 2.03287 -0.282855 -0.905695 0.315769 255 255 255 255 
0.520078 2.03545 2.01229 0.23765 -0.0867135 -0.967473 255 255 255 255 
0.552081 2.07753 2.00504 -0.490238 -0.792962 0.361772 255 255 255 255 
0.347822 2.01295 2.07617 -0.0772646 -0.990632 0.112596 255 255 255 255 
0.209509 2.06327 2.16896 -0.030934 -0.995724 0.0870465 255 255 255 255 
0.262803 2.03296 2.13129 -0.0914554 -0.947857 0.305292 255 255 255 255 
0.419363 1.99808 2.11667 0.268655 -0.937977 -0.219143 255 255 255 255 
0.310186 2.01923 2.10078 0.0111168 -0.977648 0.209957 255 255 255 255 
0.328051 2.02858 2.1684 -0.0415352 -0.925926 -0.375414 255 255 255 255 
0.0922823 1.99766 2.25387 0.267367 -0.926613 -0.26439 255 255 255 255 
0.14204 2.03078 2.19706 0.131819 -0.991256 -0.00596204 255 255 255 255 
0.436464 2.03549 1.97241 0.634615 -0.772618 0.0180286 255 255 255 255 
0.211023 2.03845 2.13698 -0.104008 -0.932979 0.344576 255 255 255 255 
0.335274 2.00362 2.04638 0.0580886 -0.98344 -0.171674 255 255 255 255 
0.302346 2.01907 2.04459 0.0498554 -0.992071 -0.115371 255 255 255 255 
0.623119 2.00909 1.88575 0.22752 -0.966187 -0.121313 255 255 255 255 
-0.053146 2.04408 2.28278 0.583276 -0.408741 -0.70194 255 255 255 255 
0.818908 2.05145 1.99154 0.107019 -0.914522 0.390124 255 255 255 255 
0.778511 2.00329 2.14981 0.205743 0.348112 -0.914597 255 255 255 255 
0.86557 2.00136 1.91424 0.0308715 -0.997343 0.0659869 255 255 255 255 
0.723869 2.07064 2.0178 -0.0357202 -0.755489 -0.654187 255 255 255 255 
0.76049 2.02445 2.07191 0.252446 -0.962433 0.0999686 255 255 255 255 
0.568607 2.04745 2.07106 -0.0635393 -0.995555 -0.0695151 255 255 255 255 
0.527668 1.99961 2.08961 0.864567 -0.421928 0.272947 255 255 255 255 
0.513635 2.03419 2.08275 -0.600828 -0.709405 -0.368443 255 255 255 255 
0.380177 2.02109 2.10958 0.0862386 -0.977976 0.19007 255 255 255 255 
0.697235 2.061 1.83535 -0.673098 -0.717498 0.179264 255 255 255 255 
0.322685 2.06988 1.98309 0.165136 0.45715 -0.873925 255 255 255 255 
0.464488 2.0371 1.89273 0.206688 -0.974632 0.0858612 255 255 255 255 
0.282386 2.02087 1.97953 -0.278448 -0.949925 -0.141808 255 255 255 255 
0.19702 1.97766 2.49467 -0.0985416 -0.99298 0.0654163 255 255 255 255 
0.0192362 2.03586 2.51524 0.110447 -0.852964 0.51015 255 255 255 255 
0.275176 2.00592 2.49258 0.336695 -0.816665 -0.468716 255 255 255 255 
0.111943 2.02026 2.497 -0.142709 -0.88938 0.434324 255 255 255 255 
0.206378 1.94194 2.46942 0.0329097 -0.941451 -0.33554 255 255 255 255 
0.104461 2.02124 2.38535 -0.139208 -0.968408 -0.206899 255 255 255 255 
-0.0740613 2.01258 2.53427 0.469299 -0.382308 -0.795989 255 255 255 255 
0.427885 2.02996 2.45374 -0.229551 -0.958199 -0.170766 255 255 255 255 
0.0455719 2.01372 2.42246 0.0474436 -0.967381 0.248844 255 255 255 255 
0.250333 2.08005 2.64107 -0.742604 -0.665303 -0.0768762 255 255 255 255 
0.531765 2.01187 1.90367 -0.19877 -0.968215 0.15182 255 255 255 255 
-0.22488 1.99804 2.46145 0.338317 -0.475551 -0.81203 255 255 255 255 
0.405877 2.02976 2.58628 -0.363479 -0.923019 0.126174 255 255 255 255 
0.602694 2.01038 2.32502 -0.0428438 -0.99351 -0.105363 255 255 255 255 
0.525793 2.02045 2.36471 -0.0739691 -0.996252 -0.0448316 255 255 255 255 
0.448434 2.02902 2.40829 -0.0287176 -0.993401 -0.111041 255 255 255 255 
0.0979066 2.00025 2.62562 -0.0173077 -0.882098 -0.470748 255 255 255 255 
0.0978792 2.01472 2.52861 -0.381439 -0.893124 0.238401 255 255 255 255 
0.435139 2.00892 2.19095 0.175386 -0.952501 -0.248962 255 255 255 255 
0.408107 1.99207 2.18239 -0.220246 -0.95574 -0.195073 255 255 255 255 
0.0567131 2.02009 2.36638 0.148229 -0.988623 0.0255592 255 255 255 255 
-0.357602 2.06088 2.66635 -0.118909 -0.91195 -0.392692 255 255 255 255 
0.0595833 1.99126 2.23797 0.161659 -0.986715 0.0161448 255 255 255 255 
0.116076 2.01479 2.17909 0.59653 -0.70637 0.381042 255 255 255 255 
0.252943 2.00136 2.08011 0.0165123 -0.986415 0.163442 255 255 255 255 
0.231452 2.04814 2.40467 0.219396 -0.942648 -0.251554 255 255 255 255 
-0.44525 1.98454 2.50996 0.103178 -0.861192 0.497697 255 255 255 255 
-0.0967848 2.00783 2.26459 -0.256066 -0.94383 -0.208842 255 255 255 255 
-0.0344832 2.03324 2.20203 -0.339069 -0.940552 -0.0198311 255 255 255 255 
0.0529447 1.99033 2.1427 0.0944711 -0.989621 -0.108283 255 255 255 255 
0.0128522 2.02711 2.26206 -0.260138 -0.963724 0.0597003 255 255 255 255 
-0.0112452 2.0232 2.48494 0.0469118 -0.88512 0.462993 255 255 255 255 
1.05492 2.03271 2.10503 -0.420093 -0.679407 -0.601605 255 255 255 255 
0.773733 1.99102 2.45349 -0.386258 -0.767949 -0.51094 255 255 255 255 
0.795906 2.04203 2.42746 -0.835953 0.254229 -0.486363 255 255 255 255 
0.890944 2.0369 2.28264 -0.255336 -0.78268 -0.56764 255 255 255 255 
1.00456 2.0338 2.03063 0.430199 -0.354078 -0.830396 255 255 255 255 
0.861594 2.08323 2.19079 0.472695 -0.864275 0.172013 255 255 255 255 
0.499781 2.03727 2.61377 0.0610162 -0.99683 -0.0510687 255 255 255 255 
0.969867 2.03582 2.01717 0.285284 0.314063 -0.905526 255 255 255 255 
0.558943 2.01323 2.4567 0.241165 -0.956541 -0.163916 255 255 255 255 
0.904332 2.05474 2.03829 0.259116 -0.965774 0.0117937 255 255 255 255 
0.832772 2.04492 2.11993 -0.11476 -0.983007 -0.14327 255 255 255 255 
0.941307 2.0103 1.95456 -0.734042 -0.314534 0.601872 255 255 255 255 
0.784222 2.03901 2.19702 0.163462 -0.866067 0.472449 255 255 255 255 
0.903427 2.03219 1.95745 0.0265057 -0.776309 0.629796 255 255 255 255 
0.691991 2.03039 2.12998 0.00015299 -0.99327 0.115818 255 255 255 255 
0.748841 2.02247 1.81951 -0.299918 -0.839523 0.453046 255 255 255 255 
0.190126 2.02479 2.16431 0.116971 -0.989173 0.0886212 255 255 255 255 
0.183986 2.03749 2.02988 -0.379385 -0.909272 -0.171149 255 255 255 255 
0.640048 2.03267 1.73825 0.0193449 -0.999813 -7.03811e-05 255 255 255 255 
0.514381 2.00977 1.80344 -0.0406798 -0.997381 -0.0598084 255 255 255 255 
0.553362 2.02333 1.77296 -0.0504368 -0.986776 -0.154043 255 255 255 255 
0.49661 2.01578 1.79636 -0.0152147 -0.996433 -0.0830106 255 255 255 255 
0.16335 2.04478 1.96506 -0.189411 -0.761843 -0.61945 255 255 255 255 
0.52484 2.05861 1.73115 -0.32329 -0.0975062 -0.941263 255 255 255 255 
-0.334921 2.01745 2.71652 0.341452 -0.921499 -0.185069 255 255 255 255 
0.422461 2.0113 2.57304 -0.0197624 -0.990969 -0.132624 255 255 255 255 
0.116315 1.99499 2.45081 0.0133933 -0.981688 0.190024 255 255 255 255 
-0.121284 1.96737 2.53704 0.433485 -0.681908 -0.589145 255 255 255 255 
0.372649 1.90949 2.14439 0.258636 -0.904014 -0.340392 255 255 255 255 
-0.3031 1.98612 2.381 0.20434 -0.52534 -0.825992 255 255 255 255 
0.563342 1.98177 2.01157 -0.207261 -0.692006 -0.691499 255 255 255 255 
1.02359 2.05024 2.11122 -0.866552 0.211914 -0.451862 255 255 255 255 
1.04505 2.04427 2.06738 0.252615 -0.962648 -0.0974421 255 255 255 255 
1.03549 2.04501 2.04824 0.0591075 -0.99087 -0.12117 255 255 255 255 
0.630305 2.00769 2.50019 -0.18135 -0.983008 0.0284241 255 255 255 255 
0.673871 1.99422 2.37747 0.118078 -0.977679 -0.173786 255 255 255 255 
0.859778 2.04157 2.14395 -0.201091 -0.955732 0.214798 255 255 255 255 
0.89973 2.02085 2.08992 0.463135 -0.677838 0.571 255 255 255 255 
0.952852 2.04844 1.98626 -0.577288 -0.655802 0.486479 255 255 255 255 
0.397609 2.04191 2.41157 -0.249222 -0.935433 -0.250707 255 255 255 255 
0.557381 2.00041 2.25337 -0.128871 -0.991094 0.0335543 255 255 255 255 
0.742738 2.04201 1.91138 0.482022 -0.780244 -0.398591 255 255 255 255 
0.544954 2.03853 2.0804 0.873149 -0.437309 0.215341 255 255 255 255 
0.422792 1.99404 2.25486 0.0919718 -0.994886 0.0417558 255 255 255 255 
0.787176 2.01066 1.83183 0.201033 -0.744307 -0.636862 255 255 255 255 
0.424887 2.05207 2.09481 0.209873 -0.442861 -0.871681 255 255 255 255 
0.766387 2.03612 1.8237 -0.299918 -0.839523 0.453046 255 255 255 255 
0.286668 1.96867 2.18419 -0.486305 -0.429634 -0.760869 255 255 255 255 
0.732019 2.03861 1.80305 -0.299918 -0.839523 0.453046 255 255 255 255 
0.180087 2.03096 2.13632 -0.163386 -0.901941 -0.399759 255 255 255 255 
0.169187 2.02347 2.11233 -0.119289 -0.991604 -0.0499226 255 255 255 255 
0.464256 2.04287 1.86907 0.0665947 -0.997 0.0394577 255 255 255 255 
0.644944 2.03647 1.74643 0.0193449 -0.999813 -7.03299e-05 255 255 255 255 
-0.0329606 2.00089 2.17161 -0.339069 -0.940552 -0.0198311 255 255 255 255 
0.226858 2.03045 1.98754 -0.0622888 -0.94573 -0.318926 255 255 255 255 
0.282862 2.06621 1.93957 -0.146497 -0.260732 -0.954232 255 255 255 255 
0.427513 1.96809 1.94373 0.419331 -0.907582 0.0213677 255 255 255 255 
-0.125053 2.06763 2.13366 -0.725829 -0.427937 0.538555 255 255 255 255 
0.576071 2.01966 1.78565 0.0189641 -0.979966 -0.198261 255 255 255 255 
0.0319426 2.0343 2.01213 -0.604925 -0.456842 -0.652197 255 255 255 255 
0.355735 1.96121 1.92616 -0.262342 -0.954025 -0.144956 255 255 255 255 
0.383232 2.02562 1.80761 -0.565567 -0.472284 -0.676078 255 255 255 255 
-0.0489767 1.97092 2.61937 0.365496 -0.695273 -0.618877 255 255 255 255 
-0.0130448 2.02177 2.48141 0.0469118 -0.88512 0.462993 255 255 255 255 
1.0672 1.99872 2.11911 -0.321847 -0.212746 -0.92258 255 255 255 255 
1.07719 2.05219 2.09657 0.528073 -0.290028 -0.798137 255 255 255 255 
0.781881 2.02669 2.41109 -0.975121 0.204455 -0.0856598 255 255 255 255 
0.66508 2.02216 2.54611 -0.44503 -0.888377 -0.112844 255 255 255 255 
0.704812 2.00297 2.4702 -0.0214891 -0.993804 0.109047 255 255 255 255 
0.978548 1.97745 2.08734 -0.685287 -0.468134 0.557883 255 255 255 255 
0.540122 2.03477 2.6472 -0.380079 0.478144 -0.791782 255 255 255 255 
1.01022 2.06485 2.01536 0.0378296 -0.998355 -0.0430854 255 255 255 255 
0.948519 2.06607 2.08699 0.273915 -0.95779 -0.0872268 255 255 255 255 
0.845093 2.0653 2.19914 0.110488 -0.993645 0.02149 255 255 255 255 
0.973237 2.05177 2.03591 -0.12137 -0.956195 0.266383 255 255 255 255 
0.974798 2.03427 1.98035 -0.834023 -0.265029 0.483907 255 255 255 255 
0.678545 2.0597 2.29593 -0.94333 0.296461 -0.149132 255 255 255 255 
0.93069 2.05007 1.95219 -0.599712 -0.534098 0.59589 255 255 255 255 
0.707028 2.02474 2.11431 -0.202306 -0.971825 0.120945 255 255 255 255 
0.882532 2.05136 1.89898 0.251694 -0.967805 0.00179386 255 255 255 255 
0.653075 2.03833 2.06045 -0.0582822 -0.997213 0.0465722 255 255 255 255 
0.339665 2.07634 2.31587 0.396094 -0.802644 0.445952 255 255 255 255 
0.51528 2.02882 2.13597 -0.894385 -0.43689 0.0959352 255 255 255 255 
0.810011 2.05403 1.85234 -0.0956365 -0.933201 0.346396 255 255 255 255 
0.641877 2.0264 2.05005 -0.662053 -0.743747 -0.0923384 255 255 255 255 
0.718426 2.06533 1.86646 -0.131632 -0.991091 0.0202718 255 255 255 255 
0.494441 2.04889 1.97318 0.409119 -0.311955 -0.8575 255 255 255 255 
0.713236 2.06762 1.78324 -0.27368 -0.900352 0.338328 255 255 255 255 
0.579098 2.05151 1.80167 0.018964 -0.979966 -0.198261 255 255 255 255 
0.0268805 1.96342 2.38359 -0.00059046 -0.994295 0.106665 255 255 255 255 
1.03623 2.12949 2.10509 -0.775813 -0.507726 -0.374605 255 255 255 255 
0.457601 2.05562 2.54912 0.0361608 -0.905498 -0.422806 255 255 255 255 
0.0645362 1.99483 2.2785 0.154418 -0.98516 -0.0749386 255 255 255 255 
-0.210646 2.02367 2.45077 0.433681 -0.468912 -0.769442 255 255 255 255 
1.1195 1.99623 2.06673 -0.799228 -0.590699 -0.110948 255 255 255 255 
1.07539 2.06718 2.12758 -0.740188 -0.0515517 -0.670421 255 255 255 255 
1.08297 2.09886 2.08614 -0.972405 -0.0812273 -0.218703 255 255 255 255 
1.04566 1.94199 2.11875 -0.612693 0.0727079 -0.786969 255 255 255 255 
1.05694 2.00583 2.13184 -0.42683 -0.0674 -0.901817 255 255 255 255 
1.05903 2.05785 2.01179 0.354387 -0.92877 -0.10861 255 255 255 255 
1.03975 1.94488 2.11958 -0.612693 0.0727079 -0.786969 255 255 255 255 
1.03939 2.06012 2.0753 0.755606 -0.600963 0.260585 255 255 255 255 
0.918043 2.0729 2.11153 0.253465 -0.961608 -0.105196 255 255 255 255 
0.819158 2.05213 2.20933 0.387677 -0.778453 -0.493678 255 255 255 255 
0.743989 2.05713 2.23218 -0.701597 -0.609643 -0.368913 255 255 255 255 
0.930979 2.11087 1.99678 -0.974546 0.171042 -0.144927 255 255 255 255 
0.803331 2.06987 2.12673 -0.0366028 -0.997845 -0.0544651 255 255 255 255 
0.925692 2.05887 1.98132 -0.444436 -0.525457 0.725515 255 255 255 255 
0.92964 2.02602 1.92805 -0.806685 -0.398487 0.436427 255 255 255 255 
0.73291 2.01361 2.15712 -0.0108482 -0.999006 -0.0432315 255 255 255 255 
0.854153 2.02068 1.85111 0.535333 -0.499768 -0.680919 255 255 255 255 
0.852286 2.02882 1.84227 -0.49102 -0.671573 0.554877 255 255 255 255 
0.772691 2.08645 1.87926 -0.28874 -0.953354 0.0880093 255 255 255 255 
0.779625 2.04572 1.79576 -0.314816 -0.769586 0.555543 255 255 255 255 
0.665994 2.0796 2.15389 -0.348111 0.122936 -0.929357 255 255 255 255 
-0.127608 2.95024 2.25745 0.155541 -0.98578 -0.0636017 255 255 255 255 
0.669304 2.01648 2.50923 -0.118774 -0.978273 -0.169924 255 255 255 255 
0.392761 2.00733 2.5217 -0.548817 -0.78424 0.289428 255 255 255 255 
0.282752 2.03601 2.36225 0.176113 -0.983774 -0.0342479 255 255 255 255 
0.319669 2.02853 2.33323 0.120548 -0.990805 -0.0614247 255 255 255 255 
0.178113 1.98634 2.43361 0.0178421 -0.908262 -0.41802 255 255 255 255 
0.574649 2.0028 2.17097 0.00669126 -0.983946 -0.178343 255 255 255 255 
0.959882 2.06766 2.01653 -0.412301 -0.653195 0.635094 255 255 255 255 
0.900012 2.03788 2.08146 0.746964 -0.650731 -0.136359 255 255 255 255 
0.93411 2.07723 2.03671 -0.538116 -0.834442 -0.118903 255 255 255 255 
1.00459 1.92189 2.01888 -0.450972 -0.881905 0.137364 255 255 255 255 
0.934358 1.98864 1.95489 0.651876 0.0300072 -0.757732 255 255 255 255 
0.835288 2.10979 2.01798 -0.101499 -0.266663 -0.958431 255 255 255 255 
0.861548 2.03786 1.97668 -0.0532718 -0.959994 0.274908 255 255 255 255 
0.907071 2.04056 1.92272 0.557566 0.143682 -0.817603 255 255 255 255 
1.34231 1.11644 2.25445 0.424558 0.485683 -0.764109 255 255 255 255 
1.01846 1.68555 2.16445 -0.956588 -0.0936041 -0.276004 255 255 255 255 
1.03316 1.51101 2.15762 -0.583073 0.656361 -0.478765 255 255 255 255 
1.05456 1.44246 2.13712 -0.9091 -0.144362 0.390764 255 255 255 255 
0.422802 2.0624 2.68471 -0.483335 -0.755186 0.44281 255 255 255 255 
0.589879 2.05141 2.24936 -0.0952836 -0.995293 -0.0176796 255 255 255 255 
0.523403 2.05553 2.29046 0.426815 -0.904339 -0.000581342 255 255 255 255 
0.63704 2.11232 2.01664 0.975333 -0.14902 -0.162846 255 255 255 255 
0.498456 2.07666 2.02823 0.438632 -0.840227 -0.318781 255 255 255 255 
0.401306 2.13929 2.0654 0.282762 -0.868496 0.407136 255 255 255 255 
0.345638 2.18111 2.06734 0.702803 -0.544022 -0.458375 255 255 255 255 
0.778489 2.11273 2.3519 0.372246 0.187961 -0.908902 255 255 255 255 
0.707118 2.11471 2.39926 0.0903243 -0.698472 0.709915 255 255 255 255 
0.646989 2.10954 2.16939 -0.797121 0.178378 -0.576871 255 255 255 255 
0.883445 1.86 2.30621 -0.288549 -0.0325476 -0.956912 255 255 255 255 
1.04161 1.15899 2.14777 0.794284 -0.603562 -0.0694658 255 255 255 255 
1.03227 1.1865 2.15704 -0.912968 -0.220292 -0.343454 255 255 255 255 
0.444651 2.03849 2.46994 0.389602 -0.739505 0.548947 255 255 255 255 
0.334472 2.03893 2.49325 -0.0942799 -0.750953 0.653591 255 255 255 255 
0.786563 2.10872 2.35204 0.372246 0.187961 -0.908902 255 255 255 255 
0.814371 2.12114 2.23165 0.155827 0.561771 -0.812485 255 255 255 255 
1.2948 0.968793 2.18039 0.864963 -0.408938 -0.290875 255 255 255 255 
1.3161 1.15073 2.78026 -0.538157 0.792539 -0.286827 255 255 255 255 
1.30449 1.12433 2.26817 0.209574 -0.608721 -0.765205 255 255 255 255 
1.45016 1.05688 2.16195 -0.868514 -0.225109 -0.441598 255 255 255 255 
1.50445 1.11334 2.26764 -0.845454 0.533692 -0.0195007 255 255 255 255 
1.47836 1.12024 2.30716 -0.269018 -0.660031 0.701419 255 255 255 255 
1.44793 1.0689 2.19404 0.0307724 -0.938686 0.343399 255 255 255 255 
1.67558 1.11061 2.36243 0.18202 -0.507939 -0.841942 255 255 255 255 
1.4072 1.09909 2.32734 -0.711939 -0.339895 -0.614503 255 255 255 255 
1.92393 1.92114 2.28483 -0.811346 0.449544 -0.373668 255 255 255 255 
1.918 1.93212 2.30271 -0.8111 0.584734 -0.0142753 255 255 255 255 
1.52958 1.09508 2.49798 -0.429372 0.780112 -0.455044 255 255 255 255 
1.46726 1.12411 2.30203 0.739367 -0.223194 -0.635233 255 255 255 255 
2.06348 2.25693 2.38681 0.794438 -0.493309 -0.35428 255 255 255 255 
1.88148 2.1072 2.22805 -0.370385 -0.214622 -0.903744 255 255 255 255 
1.51127 1.10993 2.45642 0.115758 -0.992751 -0.0323421 255 255 255 255 
1.49771 1.08832 2.43578 -0.268766 0.715114 -0.645272 255 255 255 255 
1.51209 1.11753 2.30783 0.688719 0.0837113 -0.720179 255 255 255 255 
1.50308 1.11365 2.3828 -0.855791 -0.294069 0.425611 255 255 255 255 
1.48271 1.08541 2.43998 -0.374764 -0.653929 -0.657213 255 255 255 255 
1.48112 1.11156 2.35313 -0.925303 -0.300215 0.231702 255 255 255 255 
1.50265 1.11141 2.42818 -0.0464394 -0.992923 0.109299 255 255 255 255 
1.57265 1.08955 2.46106 -0.598491 -0.768562 -0.226099 255 255 255 255 
1.54588 1.09286 2.44536 0.274307 -0.905099 0.324887 255 255 255 255 
1.5467 1.10458 2.31566 0.0395018 -0.994632 0.0956397 255 255 255 255 
1.53221 1.08344 2.55623 0.490718 0.0531153 -0.869698 255 255 255 255 
1.52058 1.10778 2.29733 -0.208706 -0.968024 -0.139179 255 255 255 255 
1.52572 1.12473 2.27907 -0.773929 -0.461046 0.434132 255 255 255 255 
1.52817 1.11969 2.27001 -0.838303 -0.535297 0.103462 255 255 255 255 
1.54386 1.05062 2.50785 -0.546266 0.785739 -0.290187 255 255 255 255 
1.6302 1.10714 2.55983 -0.216425 -0.905255 0.365613 255 255 255 255 
1.60201 1.09473 2.49801 -0.262511 -0.780703 -0.56709 255 255 255 255 
1.59455 1.09393 2.47579 -0.123486 0.216235 -0.968501 255 255 255 255 
1.54785 1.04817 2.46836 -0.0878629 -0.658088 -0.747797 255 255 255 255 
1.69262 1.09608 2.46807 0.25284 -0.818207 -0.516342 255 255 255 255 
1.6696 1.1192 2.32143 0.0690571 -0.975519 0.208792 255 255 255 255 
1.66898 1.0849 2.40829 0.410482 -0.89588 0.170011 255 255 255 255 
1.65668 1.11682 2.29552 0.133142 -0.966967 -0.217368 255 255 255 255 
1.63678 1.10096 2.26734 -0.570959 -0.521046 -0.634442 255 255 255 255 
1.64598 1.11258 2.35078 0.445918 -0.814824 -0.370431 255 255 255 255 
1.82807 2.06117 2.59291 0.405334 0.462509 -0.788536 255 255 255 255 
1.61273 1.08901 2.41568 0.328087 -0.863561 0.382912 255 255 255 255 
1.65693 1.08116 2.47081 0.0776879 -0.53265 -0.842762 255 255 255 255 
1.62716 1.05133 2.5179 0.787422 0.0549444 -0.613961 255 255 255 255 
1.63965 1.12256 2.31356 0.0674263 -0.997444 -0.0236606 255 255 255 255 
1.90322 1.96275 2.31501 -0.963083 -0.259655 0.071062 255 255 255 255 
1.87807 1.84297 2.28916 -0.231691 0.460896 -0.856676 255 255 255 255 
1.85491 2.15328 2.34564 -0.965858 -0.247656 0.0760652 255 255 255 255 
2.03473 2.18212 2.33543 -0.643981 -0.414819 0.642818 255 255 255 255 
1.63463 1.06461 2.44343 0.68776 -0.535976 -0.489609 255 255 255 255 
1.6341 1.04586 2.53104 -0.638593 -0.420762 0.644328 255 255 255 255 
1.61765 1.08677 2.52805 0.410387 0.555164 -0.723447 255 255 255 255 
2.03554 2.17483 2.31307 0.368635 0.0950616 -0.924701 255 255 255 255 
1.93901 1.89197 2.29549 -0.278226 -0.588178 0.759366 255 255 255 255 
2.28319 2.15111 2.62508 -0.511182 -0.371182 0.775188 255 255 255 255 
2.1604 2.26431 2.40842 0.25234 -0.940584 0.227216 255 255 255 255 
2.16662 1.97247 2.56675 -0.237897 -0.954508 -0.179778 255 255 255 255 
2.33995 2.17098 2.89129 0.732975 -0.678773 -0.0448923 255 255 255 255 
2.0893 2.16627 2.36627 -0.11184 0.328905 -0.937717 255 255 255 255 
2.0546 1.96203 2.35055 0.658272 0.0112372 -0.752696 255 255 255 255 
2.0455 2.00475 2.33543 0.364867 0.438208 -0.82149 255 255 255 255 
2.14657 1.94548 2.57855 -0.101105 -0.978296 -0.180871 255 255 255 255 
2.05761 2.16218 2.34315 0.699417 -0.219193 -0.680273 255 255 255 255 
1.91616 1.77065 2.22501 0.142646 0.372166 -0.917139 255 255 255 255 
1.94762 2.15614 2.26347 0.591363 -0.531918 -0.606097 255 255 255 255 
1.95815 1.7922 2.51873 0.148065 0.441831 -0.884795 255 255 255 255 
2.02189 1.82327 2.54464 0.224969 0.213786 -0.950623 255 255 255 255 
2.04732 2.17776 2.11797 0.298237 -0.896733 0.326994 255 255 255 255 
2.14627 2.21752 2.13666 0.200707 -0.97872 0.0427057 255 255 255 255 
1.92345 1.94707 2.31255 -0.185216 0.0289316 -0.982272 255 255 255 255 
1.66565 1.12817 2.07927 0.603791 -0.0203569 -0.796883 255 255 255 255 
1.66046 1.1111 2.26005 -0.245774 0.822316 -0.513217 255 255 255 255 
1.661 1.12437 2.07838 0.603791 -0.0203569 -0.796883 255 255 255 255 
1.67471 1.09052 2.39452 -0.897819 0.42684 0.108296 255 255 255 255 
1.67301 1.11776 2.30018 0.178275 -0.920193 -0.348514 255 255 255 255 
1.69187 1.09316 2.48503 -0.550043 0.790887 -0.268234 255 255 255 255 
1.64522 1.11027 2.25515 -0.250001 -0.927777 -0.277001 255 255 255 255 
1.84521 2.13388 2.39584 -0.99649 -0.0624036 0.0558012 255 255 255 255 
2.0904 1.91056 2.37733 0.448568 -0.453331 -0.770245 255 255 255 255 
2.4862 2.20532 2.83763 0.66788 -0.738322 -0.0938937 255 255 255 255 
2.22804 2.17798 2.39507 -0.433639 -0.523796 0.733209 255 255 255 255 
2.17485 2.17928 2.3062 0.295104 -0.448092 -0.843876 255 255 255 255 
2.13739 2.13199 2.29099 0.585073 0.115923 -0.802653 255 255 255 255 
2.14046 2.29668 2.40797 0.25234 -0.940584 0.227216 255 255 255 255 
2.05499 1.99922 2.33163 0.364867 0.438208 -0.82149 255 255 255 255 
1.94827 1.91678 2.52699 -0.814938 -0.222806 -0.535007 255 255 255 255 
1.81651 2.10574 2.20228 0.0306718 0.00731652 -0.999503 255 255 255 255 
1.81942 2.1873 2.24419 0.0306718 0.0073165 -0.999503 255 255 255 255 
2.00021 1.84823 2.59148 -0.0473403 0.513761 -0.856626 255 255 255 255 
1.91455 1.90211 2.47978 0.199306 -0.610452 -0.766568 255 255 255 255 
1.59247 1.10331 2.38102 -0.407939 -0.754129 -0.51466 255 255 255 255 
2.54509 2.07811 3.33464 0.827151 -0.491475 -0.272531 255 255 255 255 
2.51809 2.28921 2.69613 -0.945281 0.254984 0.203538 255 255 255 255 
2.2103 2.12033 2.33938 0.629581 0.0455107 -0.775601 255 255 255 255 
1.97471 2.11929 2.12948 0.30276 -0.931319 0.202441 255 255 255 255 
2.39989 2.04627 2.96351 0.786642 -0.411451 -0.460329 255 255 255 255 
1.94111 2.1433 2.1475 0.445845 -0.832273 0.329461 255 255 255 255 
