ply
format ascii 1.0
comment VCGLIB generated
element vertex 673
property float x
property float y
property float z
property float nx
property float ny
property float nz
property uchar red
property uchar green
property uchar blue
property uchar alpha
element face 0
property list uchar int vertex_indices
end_header
0.716757 1.22357 0.211872 0.385066 -0.567492 -0.72779 255 255 255 255 
0.703189 1.23525 0.20968 -0.000911505 -0.258619 -0.965979 255 255 255 255 
0.936049 1.22469 0.250756 -0.672573 -0.726928 -0.138639 255 255 255 255 
0.948968 1.18508 0.262755 -0.069924 0.0282018 -0.997154 255 255 255 255 
0.932096 1.22866 0.181121 -0.221641 -0.933165 -0.282982 255 255 255 255 
0.927079 1.21985 0.214416 -0.172424 -0.893446 -0.414759 255 255 255 255 
0.845681 1.21894 0.230285 0.222646 -0.414002 -0.882627 255 255 255 255 
0.846501 1.18083 0.253841 0.224344 -0.3635 -0.904178 255 255 255 255 
0.812138 1.21944 0.216416 0.229728 -0.735623 -0.637247 255 255 255 255 
0.79759 1.21877 0.237689 0.285913 -0.381812 -0.878905 255 255 255 255 
0.796638 1.22469 0.221776 -0.0189558 -0.734898 -0.677913 255 255 255 255 
0.874377 1.23022 0.247455 -0.042682 -0.331998 -0.942314 255 255 255 255 
0.696697 1.21213 0.232247 -0.000911483 -0.25862 -0.965979 255 255 255 255 
1.16058 1.20354 0.172691 -0.807221 -0.57126 0.148511 255 255 255 255 
1.10406 1.20476 0.180756 -0.0462205 -0.940559 -0.33647 255 255 255 255 
0.885145 1.22465 0.240549 -0.19129 -0.471494 -0.860872 255 255 255 255 
0.952435 1.1872 0.255847 -0.069924 0.0282018 -0.997154 255 255 255 255 
0.912595 1.22969 0.253667 -0.458798 0.326394 -0.826421 255 255 255 255 
1.15773 1.22641 0.265131 0.423445 -0.898577 -0.115131 255 255 255 255 
0.911474 1.20804 0.213992 0.586365 -0.564594 0.580869 255 255 255 255 
1.13323 1.20533 0.101544 -0.814763 -0.371217 -0.445376 255 255 255 255 
0.929193 1.17396 0.260179 0.183003 -0.170211 -0.968265 255 255 255 255 
0.908402 1.16723 0.251738 0.032941 -0.37195 -0.927668 255 255 255 255 
1.14767 1.18076 0.279303 0.592027 -0.786127 -0.177508 255 255 255 255 
0.941621 1.11052 0.253709 -0.208019 0.0468762 -0.977001 255 255 255 255 
0.982763 0.385172 0.51417 0.0953228 0.515966 -0.851289 255 255 255 255 
0.868905 1.19375 0.259251 -0.0979789 -0.230548 -0.968116 255 255 255 255 
0.950314 1.17735 0.25373 -0.0639799 -0.136826 -0.988527 255 255 255 255 
1.15544 1.17302 0.205218 -0.509551 -0.443607 -0.737272 255 255 255 255 
0.989485 1.16555 0.201662 -0.32582 -0.822279 -0.466581 255 255 255 255 
0.925595 0.388333 0.559051 -0.690845 -0.632341 0.350539 255 255 255 255 
0.824611 0.979538 0.256763 -0.0831327 -0.0306211 -0.996068 255 255 255 255 
1.05397 0.871111 0.275599 0.1195 -0.134463 -0.983687 255 255 255 255 
0.87701 0.908286 0.255596 -0.0193097 -0.109516 -0.993797 255 255 255 255 
0.839492 0.920633 0.262866 -0.0193097 -0.109516 -0.993797 255 255 255 255 
0.853532 0.940112 0.247951 -0.0468688 0.0582868 -0.997199 255 255 255 255 
0.725012 1.14102 0.251073 0.110961 -0.350649 -0.92991 255 255 255 255 
0.71286 1.18229 0.254101 -0.980235 -0.149747 0.129284 255 255 255 255 
1.08178 0.992246 0.263107 -0.607061 -0.09937 0.788418 255 255 255 255 
1.05941 0.961934 0.260294 0.210368 -0.150397 -0.965984 255 255 255 255 
1.04563 0.948067 0.264701 0.210368 -0.150397 -0.965984 255 255 255 255 
0.961119 0.835056 0.269557 0.0409657 -0.285068 -0.957632 255 255 255 255 
0.858377 0.894445 0.258449 -0.0532251 -0.120458 -0.991291 255 255 255 255 
0.862311 0.892724 0.249319 -0.0532251 -0.120458 -0.991291 255 255 255 255 
1.12219 1.17962 0.274943 0.624902 -0.689323 -0.366512 255 255 255 255 
1.10507 1.18567 0.217031 -0.0245866 -0.94498 -0.326202 255 255 255 255 
1.05449 0.964293 0.266037 0.210368 -0.150397 -0.965984 255 255 255 255 
1.04729 0.981964 0.255008 0.113447 -0.0723822 -0.990904 255 255 255 255 
1.0475 0.976135 0.268556 0.113447 -0.0723822 -0.990904 255 255 255 255 
1.06972 1.20148 0.210432 0.118146 -0.911343 -0.394329 255 255 255 255 
0.927226 1.21555 0.23637 -0.653646 -0.297233 0.695989 255 255 255 255 
0.912798 1.17375 0.233919 0.143584 -0.606903 -0.781698 255 255 255 255 
0.937463 1.12103 0.262021 -0.16969 0.0580314 -0.983787 255 255 255 255 
0.880086 1.20263 0.240091 -0.287739 -0.313056 -0.905098 255 255 255 255 
0.809315 1.19255 0.231372 0.1609 -0.479276 -0.862789 255 255 255 255 
0.715676 1.18536 0.218831 -0.73917 0.199573 0.643272 255 255 255 255 
0.701745 1.18244 0.211145 -0.73917 0.199573 0.643272 255 255 255 255 
0.695737 1.1756 0.240796 -0.730667 0.0866937 0.677207 255 255 255 255 
0.696688 1.17266 0.218986 -0.73917 0.199573 0.643272 255 255 255 255 
0.788354 0.396712 0.575765 -0.683703 -0.614748 0.393236 255 255 255 255 
0.79563 1.17519 0.242158 0.195224 -0.480916 -0.854755 255 255 255 255 
0.790237 0.402989 0.998357 -0.270466 -0.927618 -0.257629 255 255 255 255 
0.680256 0.387094 0.436622 0.0496753 0.25831 -0.964784 255 255 255 255 
0.850512 0.412844 0.113637 -0.00819084 -0.964217 -0.264987 255 255 255 255 
0.729418 1.12204 0.249913 0.0720196 -0.343782 -0.936284 255 255 255 255 
0.514926 1.18331 0.228046 0.0385897 -0.442921 0.89573 255 255 255 255 
1.10065 0.812177 0.279067 0.131894 -0.161012 -0.9781 255 255 255 255 
1.15053 1.16878 0.230148 0.130075 -0.891462 0.434023 255 255 255 255 
1.08237 0.94824 0.267619 -0.569101 0.101913 0.815928 255 255 255 255 
1.09775 1.17586 0.201989 0.0109329 -0.6357 -0.771858 255 255 255 255 
1.07696 1.11251 0.233252 -0.829005 -0.558923 -0.0188722 255 255 255 255 
1.00885 1.16822 0.20936 -0.0360731 -0.996067 -0.0809249 255 255 255 255 
1.00537 1.19364 0.206889 -0.277668 -0.764749 -0.58143 255 255 255 255 
0.977595 1.16878 0.229407 -0.480442 -0.581336 -0.656676 255 255 255 255 
0.961594 0.989821 0.251214 0.14776 -0.0969962 -0.984255 255 255 255 255 
0.957864 1.03744 0.240618 -0.217454 -0.0811847 0.972688 255 255 255 255 
0.885038 1.17844 0.255247 -0.0544462 -0.181772 -0.981832 255 255 255 255 
0.852368 0.927205 0.256586 -0.0193097 -0.109516 -0.993797 255 255 255 255 
0.629992 1.20769 0.24553 -0.068584 -0.820673 0.567268 255 255 255 255 
0.568113 1.19448 0.218409 0.0385897 -0.442921 0.89573 255 255 255 255 
0.685963 0.394527 0.310046 -0.202861 -0.859829 0.468553 255 255 255 255 
0.466539 1.18424 0.220464 0.00869711 -0.960086 0.27957 255 255 255 255 
0.952724 1.049 0.239973 -0.980642 -0.192907 -0.0336018 255 255 255 255 
1.09604 1.15978 0.239326 0.42728 -0.58187 -0.691997 255 255 255 255 
1.04761 1.17403 0.20122 0.112673 -0.829082 -0.547656 255 255 255 255 
0.758145 0.378062 0.437983 -0.500507 -0.410122 0.762425 255 255 255 255 
0.952395 0.816335 0.260201 0.0409657 -0.285068 -0.957632 255 255 255 255 
0.965939 0.973964 0.241508 0.147519 -0.0564048 -0.98745 255 255 255 255 
0.84223 0.405716 0.104344 -0.0393045 -0.957665 -0.28519 255 255 255 255 
1.07647 1.16041 0.259336 -0.761221 0.364894 0.536093 255 255 255 255 
0.951611 1.08431 0.236049 -0.990552 -0.136878 -0.00842819 255 255 255 255 
0.860291 0.390586 0.568675 0.0949206 -0.990364 -0.100847 255 255 255 255 
0.860231 0.416004 0.0995449 -0.00819084 -0.964217 -0.264987 255 255 255 255 
0.839697 1.19543 0.244999 0.232203 -0.400556 -0.886361 255 255 255 255 
0.963315 0.403274 1.03153 -0.447162 -0.886614 -0.118159 255 255 255 255 
0.866025 0.417598 0.116095 -0.00819084 -0.964217 -0.264987 255 255 255 255 
0.660335 1.17727 0.184067 -0.000911468 -0.25862 -0.965979 255 255 255 255 
1.01872 0.388026 1.02696 -0.467709 -0.736539 -0.488629 255 255 255 255 
0.63602 0.392508 0.906779 0.180382 -0.390711 -0.902667 255 255 255 255 
1.08238 0.370582 1.26421 0.18467 -0.255848 -0.948915 255 255 255 255 
0.674407 0.379069 1.48134 -0.18942 -0.976901 -0.0989115 255 255 255 255 
1.01362 0.387993 1.03377 -0.613675 -0.184069 -0.767803 255 255 255 255 
1.03594 0.352284 1.27773 -0.787602 0.514906 0.338461 255 255 255 255 
0.718119 0.371931 1.36666 -0.386982 -0.920903 0.0467094 255 255 255 255 
0.754129 0.391361 0.977567 -0.189124 -0.956662 -0.221426 255 255 255 255 
0.832405 0.372217 0.998228 -0.776959 -0.613222 -0.142455 255 255 255 255 
0.656914 0.369386 1.16875 -0.127332 -0.989965 0.0612781 255 255 255 255 
0.654509 0.378916 0.613603 -0.098284 -0.981908 -0.161856 255 255 255 255 
0.903491 0.298605 1.00742 -0.483238 0.773058 -0.410929 255 255 255 255 
0.793386 0.397347 1.00118 -0.287594 -0.943107 -0.166851 255 255 255 255 
0.72474 0.396301 1.03499 0.017034 -0.938229 -0.345596 255 255 255 255 
0.669212 0.386148 0.652686 0.420321 -0.639929 -0.643289 255 255 255 255 
0.830708 0.374536 0.585504 0.108205 -0.991441 0.0730446 255 255 255 255 
1.03619 0.36872 1.25265 -0.967113 0.113033 -0.227851 255 255 255 255 
0.709195 0.362519 1.17787 -0.136731 -0.938223 0.317872 255 255 255 255 
1.06261 0.373441 1.28122 0.352802 -0.836944 -0.418397 255 255 255 255 
0.862684 0.38584 0.569532 0.064509 -0.989407 -0.130046 255 255 255 255 
0.668702 0.350436 1.04728 0.0229939 -0.989655 -0.141615 255 255 255 255 
0.629351 0.374326 1.20483 -0.112545 -0.978427 0.173244 255 255 255 255 
0.494842 0.382472 1.72928 -0.170136 -0.975958 -0.136231 255 255 255 255 
1.18822 0.401967 0.929216 -0.88876 -0.429155 0.161034 255 255 255 255 
1.79642 1.14224 4.51659 0.0665446 -0.997515 -0.0231353 255 255 255 255 
1.06189 0.335562 1.36123 -0.518398 -0.854974 -0.0168421 255 255 255 255 
0.920492 0.384444 0.530068 -0.0968286 0.174113 -0.979954 255 255 255 255 
0.923884 0.385442 0.526873 -0.150727 0.361379 -0.920156 255 255 255 255 
0.873641 0.397569 0.429612 0.253946 -0.453736 -0.854187 255 255 255 255 
0.871541 0.395276 0.429961 -0.418258 -0.430472 0.799847 255 255 255 255 
0.934835 0.388307 0.528763 -0.0425889 0.511672 -0.858125 255 255 255 255 
0.77771 0.395284 0.99087 -0.270465 -0.927618 -0.257629 255 255 255 255 
0.690265 0.366591 1.17924 -0.0909103 -0.95804 0.271834 255 255 255 255 
0.70691 0.399641 1.0463 0.0981023 -0.961015 -0.258509 255 255 255 255 
0.790779 0.388744 0.43216 -0.62874 -0.0169061 -0.777432 255 255 255 255 
0.696508 0.399874 1.02454 0.203344 -0.977035 -0.0636687 255 255 255 255 
0.772433 0.408294 0.431302 -0.368959 -0.433259 0.822287 255 255 255 255 
0.772823 0.389308 0.411083 -0.43354 -0.782218 0.447414 255 255 255 255 
0.647327 0.40384 0.90764 0.180382 -0.390711 -0.902667 255 255 255 255 
0.763156 0.37085 0.388906 -0.0323185 -0.753341 0.656836 255 255 255 255 
0.756276 0.39288 0.345952 -0.414037 -0.895998 0.160503 255 255 255 255 
0.642789 0.364676 1.05717 0.160011 -0.981654 -0.103696 255 255 255 255 
0.74818 0.387665 0.347753 -0.414037 -0.895998 0.160503 255 255 255 255 
0.740976 0.377475 0.41464 0.1253 -0.992111 0.00392151 255 255 255 255 
1.06105 0.376212 0.361315 -0.240223 0.925325 -0.293371 255 255 255 255 
1.03603 0.373703 1.26158 -0.980971 0.038735 0.190249 255 255 255 255 
1.07687 0.354672 1.26196 -0.0625977 0.211651 -0.975339 255 255 255 255 
1.04144 0.352828 1.24906 -0.820091 -0.479007 0.313055 255 255 255 255 
0.712915 0.388402 1.27166 -0.0105031 -0.996692 0.0805858 255 255 255 255 
0.67017 0.402406 1.47838 -0.0772804 -0.995866 -0.0477276 255 255 255 255 
1.18655 0.39672 0.939362 -0.88876 -0.429155 0.161034 255 255 255 255 
2.47945 1.14193 4.17745 -0.13175 -0.982372 -0.132614 255 255 255 255 
1.9428 1.10067 2.86078 0.0293038 -0.99566 0.0883299 255 255 255 255 
1.94857 1.14783 3.09457 -0.0244746 -0.993825 0.108224 255 255 255 255 
2.00103 1.2136 3.8552 -0.0143389 -0.998344 -0.0557077 255 255 255 255 
1.93821 1.18035 3.64881 -0.0247322 -0.99969 -0.00301415 255 255 255 255 
1.90823 1.18552 4.05813 -0.0244745 -0.997326 -0.0688653 255 255 255 255 
1.01169 0.19896 1.16895 0.426018 0.432204 -0.794801 255 255 255 255 
1.04551 0.376253 0.346841 0.0502223 -0.99853 0.0203918 255 255 255 255 
1.98946 1.11066 2.21679 -0.655961 0.0255546 -0.754362 255 255 255 255 
1.69038 1.12383 1.42053 0.0952746 0.630647 -0.770199 255 255 255 255 
2.17655 1.12088 2.92508 -0.350913 -0.707643 -0.613271 255 255 255 255 
2.17983 1.33746 2.92532 0.234972 0.0342004 -0.9714 255 255 255 255 
0.990788 0.378899 1.25014 -0.737203 0.67309 0.059006 255 255 255 255 
2.1951 1.11354 2.86588 -0.350913 -0.707643 -0.613271 255 255 255 255 
1.98015 1.11847 2.85868 0.00706804 -0.99963 -0.0262752 255 255 255 255 
1.05634 0.279004 1.22865 0.455025 0.316544 -0.832317 255 255 255 255 
1.67884 1.1254 1.03782 0.0439761 -0.992754 -0.11183 255 255 255 255 
2.1148 1.04406 2.12751 -0.0620064 -0.98194 0.178744 255 255 255 255 
2.03256 1.10092 1.9552 0.123289 -0.992267 0.0143493 255 255 255 255 
1.78946 1.12068 1.3622 -0.950696 0.123868 -0.284313 255 255 255 255 
2.18308 1.12443 2.47111 -0.139106 -0.984333 0.108346 255 255 255 255 
2.01376 1.09313 2.0657 -0.260809 -0.963489 -0.0605674 255 255 255 255 
1.71646 1.13842 1.26673 -0.033752 -0.998026 0.0529548 255 255 255 255 
2.00165 1.08215 2.13048 0.249226 -0.962788 0.104524 255 255 255 255 
1.99489 1.10865 2.11843 -0.15844 -0.9871 -0.0230226 255 255 255 255 
1.73461 1.11131 1.41114 -0.343724 0.469928 -0.813033 255 255 255 255 
1.59605 1.07405 1.20172 -0.777253 0.585404 0.230609 255 255 255 255 
1.81049 1.10687 1.90078 0.148819 -0.985325 0.0835877 255 255 255 255 
1.93194 1.10464 1.97106 -0.416471 -0.88962 -0.187423 255 255 255 255 
1.60943 1.11463 1.39273 -0.113989 -0.966732 0.22899 255 255 255 255 
1.59946 1.14244 1.7806 0.227764 -0.935097 0.271508 255 255 255 255 
1.57116 1.12372 1.84226 -0.23697 -0.963006 -0.128316 255 255 255 255 
1.53359 1.14117 1.7681 0.202185 -0.795268 -0.571551 255 255 255 255 
1.93099 1.10652 2.7767 0.0256929 -0.997752 -0.0618988 255 255 255 255 
1.51381 1.11714 2.80249 -0.238977 -0.633182 -0.736186 255 255 255 255 
1.49462 1.16883 2.86903 0.22826 -0.59779 -0.768469 255 255 255 255 
1.58946 1.16839 2.74972 -0.728924 0.681931 0.0603374 255 255 255 255 
1.41871 1.17857 2.77769 0.752683 -0.519585 -0.404351 255 255 255 255 
1.13101 0.39306 1.72693 0.0912427 -0.995822 -0.00363322 255 255 255 255 
2.20345 1.08243 2.91192 -0.3647 -0.726003 -0.583021 255 255 255 255 
1.82784 1.16761 4.27377 -0.0294409 -0.994874 -0.0967396 255 255 255 255 
2.01745 1.10941 1.8589 -0.189996 -0.981695 0.013276 255 255 255 255 
1.40943 1.02037 1.58449 -0.881948 0.454159 0.126126 255 255 255 255 
1.85783 1.14608 1.01268 0.336923 -0.920869 0.196171 255 255 255 255 
1.85074 1.10518 1.02202 -0.894154 0.298237 -0.333981 255 255 255 255 
2.06708 1.14882 1.43576 -0.163347 -0.970112 -0.179447 255 255 255 255 
2.30115 1.09463 1.92511 -0.0644967 -0.982559 0.174409 255 255 255 255 
2.16604 1.1183 1.65228 -0.0709278 -0.956242 0.283851 255 255 255 255 
1.59793 1.09776 0.568776 -0.386607 -0.921524 -0.0364385 255 255 255 255 
2.39407 1.13197 2.11381 0.322155 -0.943923 -0.072282 255 255 255 255 
1.97553 1.12608 1.30702 -0.16683 0.790503 -0.589298 255 255 255 255 
1.84264 1.1286 1.04229 -0.893074 0.379785 0.241209 255 255 255 255 
2.22218 0.211208 2.10042 -0.896426 0.421644 -0.136518 255 255 255 255 
2.06526 1.12766 1.50021 -0.257597 -0.945961 -0.196984 255 255 255 255 
1.68167 1.123 0.751677 0.258064 -0.928299 -0.2677 255 255 255 255 
1.66454 1.12508 0.72269 0.105626 -0.933281 -0.343264 255 255 255 255 
2.21643 0.196059 2.12639 -0.896426 0.421644 -0.136518 255 255 255 255 
2.00122 1.15729 1.37961 -0.146547 -0.986207 0.0769378 255 255 255 255 
2.35645 1.12114 2.13313 0.280553 -0.959044 0.0390616 255 255 255 255 
2.05219 1.12006 1.58444 -0.472881 -0.874639 -0.106723 255 255 255 255 
2.05008 1.08238 1.61947 -0.296651 -0.895712 0.331207 255 255 255 255 
1.93033 1.06301 1.3844 -0.805255 -0.589714 0.0616505 255 255 255 255 
2.22308 1.06001 2.04643 -0.324474 -0.869664 -0.372023 255 255 255 255 
2.22433 1.16329 2.05288 -0.504807 -0.801678 -0.32013 255 255 255 255 
2.02355 1.11646 1.611 -0.296651 -0.895712 0.331207 255 255 255 255 
1.79171 1.07475 1.20717 -0.863217 -0.49395 0.104253 255 255 255 255 
1.76425 1.05279 1.20118 -0.863217 -0.49395 0.104253 255 255 255 255 
1.48543 1.11207 0.619404 -0.0880272 -0.994333 0.0596033 255 255 255 255 
1.54728 1.10694 0.79321 -0.833227 -0.454483 -0.314924 255 255 255 255 
1.68533 1.10698 0.924729 -0.0274694 -0.945093 0.325644 255 255 255 255 
1.73624 1.06985 1.05193 -0.328817 -0.944212 0.0185357 255 255 255 255 
2.17773 1.06381 2.04335 -0.542551 0.834155 0.0991215 255 255 255 255 
1.52653 1.1449 0.815042 -0.683594 0.690194 0.237343 255 255 255 255 
2.14736 1.0321 2.38069 0.040461 -0.983553 0.176031 255 255 255 255 
1.97323 1.05904 1.9694 -0.34239 -0.927022 -0.152968 255 255 255 255 
1.49358 1.10105 0.831677 -0.700799 0.712806 0.0280717 255 255 255 255 
1.54756 1.151 0.813348 -0.683594 0.690194 0.237343 255 255 255 255 
2.19098 1.14058 2.7972 -0.350913 -0.707643 -0.613271 255 255 255 255 
1.84343 1.08378 1.58455 -0.857626 -0.244333 -0.452525 255 255 255 255 
1.5043 1.11972 0.755798 -0.774011 0.5821 -0.249132 255 255 255 255 
2.17169 1.17641 2.5966 -0.118901 -0.992892 0.00536005 255 255 255 255 
1.47659 1.10618 1.06142 -0.422929 0.837453 -0.346128 255 255 255 255 
1.47699 1.1062 1.10847 -0.764496 0.632224 -0.125849 255 255 255 255 
1.46701 1.09469 1.14201 0.565693 -0.776159 -0.278511 255 255 255 255 
1.47648 1.08565 1.18818 -0.466896 0.857144 -0.217514 255 255 255 255 
2.13999 1.12751 2.8573 -0.350913 -0.707643 -0.613271 255 255 255 255 
1.92744 1.13055 2.80396 0.064352 -0.99642 0.0548218 255 255 255 255 
2.30346 1.03393 4.10073 -0.13175 -0.982372 -0.132614 255 255 255 255 
1.45693 1.1472 1.21641 -0.0537192 -0.998464 0.0135984 255 255 255 255 
1.45926 1.10934 1.30674 0.00785495 -0.995852 -0.090645 255 255 255 255 
1.59544 1.12805 1.9189 -0.100759 -0.957619 0.26984 255 255 255 255 
1.46497 1.12349 1.10609 -0.891243 0.442997 0.09716 255 255 255 255 
1.45223 1.12233 1.40701 -0.482338 -0.862599 0.152556 255 255 255 255 
1.44515 1.15067 1.40625 -0.482338 -0.862599 0.152556 255 255 255 255 
1.45012 1.12782 1.45321 -0.180348 -0.979984 -0.0842937 255 255 255 255 
1.44106 1.12334 1.53394 -0.860085 0.454372 0.231949 255 255 255 255 
1.50161 1.13327 1.87711 0.287021 -0.940429 0.182245 255 255 255 255 
2.2556 1.09706 2.89946 -0.350913 -0.707643 -0.613271 255 255 255 255 
1.42971 1.13409 1.75397 -0.390439 0.784543 -0.481715 255 255 255 255 
1.53353 1.12619 1.20254 0.0886289 -0.977771 0.190023 255 255 255 255 
1.39213 1.23473 2.16278 0.258828 -0.954532 -0.147911 255 255 255 255 
1.3625 1.16819 2.39748 0.103563 -0.994521 0.0142165 255 255 255 255 
1.37804 1.02965 2.82351 0.102443 -0.994561 0.0187899 255 255 255 255 
1.23059 0.504928 1.45855 -0.504778 0.772906 -0.384469 255 255 255 255 
2.17821 1.0445 2.92597 -0.911993 -0.094312 -0.399218 255 255 255 255 
2.14063 1.01982 1.97641 0.377216 -0.0849593 -0.92222 255 255 255 255 
1.71811 1.1486 0.958335 -0.580693 -0.813975 0.0155164 255 255 255 255 
1.75118 1.98755 3.91423 -0.953335 0.23772 0.186123 255 255 255 255 
2.09191 1.11771 1.05673 -0.357486 -0.700729 -0.6174 255 255 255 255 
2.38846 1.00153 1.62805 -0.459295 -0.875017 -0.152949 255 255 255 255 
2.0578 1.06289 1.08444 -0.203902 -0.680779 -0.703536 255 255 255 255 
1.73442 1.15149 0.600951 -0.133501 -0.884645 0.446744 255 255 255 255 
2.03891 1.09448 1.10882 -0.807961 -0.337865 -0.482748 255 255 255 255 
2.36159 1.07881 1.69463 -0.693833 -0.327318 0.641451 255 255 255 255 
2.0502 1.12957 1.18491 -0.0704162 -0.987198 0.143114 255 255 255 255 
1.71532 1.1522 0.623788 -0.203035 -0.914115 0.350957 255 255 255 255 
2.05446 1.08662 1.12586 -0.711985 -0.228039 0.664135 255 255 255 255 
2.34979 1.08325 1.78723 -0.852232 0.491566 -0.179062 255 255 255 255 
2.27953 0.0499865 2.16344 -0.647251 -0.0996927 -0.75573 255 255 255 255 
2.23075 0.174985 2.12205 -0.896426 0.421644 -0.136518 255 255 255 255 
2.21979 0.0315695 2.13667 0.630743 0.155419 -0.760268 255 255 255 255 
2.1985 0.153822 2.07515 -0.896426 0.421644 -0.136518 255 255 255 255 
2.18833 0.144247 2.11524 -0.896426 0.421644 -0.136518 255 255 255 255 
2.18621 0.12199 2.19618 -0.982418 0.0852618 -0.16609 255 255 255 255 
2.16063 0.182144 2.12496 -0.896426 0.421644 -0.136518 255 255 255 255 
2.15871 0.144871 2.12095 -0.947689 0.276287 -0.159846 255 255 255 255 
2.30404 1.07034 2.02257 -0.668628 0.156054 -0.727037 255 255 255 255 
2.15963 0.0418019 2.21587 -0.706757 -0.289022 -0.645725 255 255 255 255 
2.15914 0.0794679 2.1942 -0.970599 -0.122316 -0.207308 255 255 255 255 
1.55308 1.14777 0.730922 -0.244906 0.578358 -0.778154 255 255 255 255 
2.18614 0.156838 2.20028 -0.95384 0.283392 -0.0993892 255 255 255 255 
2.16389 0.204822 2.1632 -0.753162 0.640924 0.148201 255 255 255 255 
1.46799 1.1518 0.754098 0.0233985 -0.978278 -0.205975 255 255 255 255 
2.2159 0.565644 2.95082 -0.996668 -0.0244072 0.0778251 255 255 255 255 
1.40233 1.15147 0.68298 0.0989975 -0.978652 0.180113 255 255 255 255 
2.18505 0.96351 2.95615 -0.992762 0.100326 -0.0660151 255 255 255 255 
1.50971 1.00827 0.956437 -0.69054 0.712264 -0.125839 255 255 255 255 
2.16708 1.02034 2.94621 -0.911993 -0.0943121 -0.399218 255 255 255 255 
1.91675 1.08822 2.97529 0.0293038 -0.99566 0.0883299 255 255 255 255 
1.47766 1.15816 1.06276 0.179285 -0.781713 0.597312 255 255 255 255 
1.39209 1.17703 0.803955 -0.461114 0.609271 -0.645107 255 255 255 255 
2.23217 1.14945 4.1678 -0.13175 -0.982372 -0.132614 255 255 255 255 
1.4077 1.13414 1.16543 -0.776903 -0.513641 -0.364136 255 255 255 255 
1.59049 1.15976 1.93981 -0.0473041 -0.968476 0.244576 255 255 255 255 
1.43302 1.16418 1.39266 -0.482338 -0.862599 0.152556 255 255 255 255 
1.82544 1.06462 1.55101 0.168695 -0.721434 -0.671621 255 255 255 255 
1.44522 1.18739 1.12464 -0.636469 -0.576002 -0.512961 255 255 255 255 
1.57887 1.17848 2.07141 -0.00448822 -0.995242 0.0973359 255 255 255 255 
1.43142 1.16829 1.44937 -0.0146453 -0.994043 -0.108002 255 255 255 255 
1.48155 1.13124 1.30031 0.277776 -0.960643 -0.00236282 255 255 255 255 
1.36762 1.15775 1.31738 -0.136533 -0.987126 0.0833172 255 255 255 255 
1.38542 1.1311 1.44206 0.121123 -0.958699 0.257345 255 255 255 255 
1.36773 1.11143 1.38153 0.283176 -0.902167 -0.325432 255 255 255 255 
1.84938 1.17669 3.62387 0.229532 -0.972001 0.0502851 255 255 255 255 
1.41577 1.18316 1.68699 -0.541625 -0.725574 -0.424482 255 255 255 255 
1.41548 1.15185 1.79462 0.22678 -0.945688 0.232905 255 255 255 255 
1.82825 1.21615 4.23609 -0.0294409 -0.994874 -0.0967396 255 255 255 255 
1.4626 1.26437 1.04921 0.653365 -0.330874 -0.680908 255 255 255 255 
1.65634 1.13567 4.05911 0.216089 -0.976279 -0.0135578 255 255 255 255 
1.41242 1.20779 2.71844 -0.620335 -0.078596 -0.780389 255 255 255 255 
1.37266 1.15427 2.5766 0.312698 0.607445 -0.730227 255 255 255 255 
1.36237 1.11523 2.56762 0.312698 0.607445 -0.730227 255 255 255 255 
1.41929 1.16296 3.03031 -0.169764 -0.984799 0.0367545 255 255 255 255 
1.31628 1.13334 2.29241 0.0807474 -0.996002 0.03822 255 255 255 255 
2.20103 1.02259 3.01474 -0.911993 -0.094312 -0.399218 255 255 255 255 
1.9382 1.06061 2.25304 -0.340614 0.890445 -0.301812 255 255 255 255 
2.41472 1.18126 1.69738 -0.739905 0.439818 0.50902 255 255 255 255 
2.21777 1.09298 1.63626 -0.162428 -0.981592 0.100467 255 255 255 255 
2.38432 1.01392 2.10483 0.293859 -0.952643 0.0782217 255 255 255 255 
2.13087 1.18921 2.08113 -0.872164 -0.406565 0.272092 255 255 255 255 
2.30325 1.14372 1.21458 -0.479325 -0.504364 0.718238 255 255 255 255 
2.13362 1.07563 1.03571 -0.72164 -0.311181 0.618386 255 255 255 255 
2.1429 1.07626 1.05505 0.0334516 0.572649 -0.819118 255 255 255 255 
2.08005 1.12432 1.03552 -0.347374 -0.739347 -0.5768 255 255 255 255 
2.57141 1.18859 1.81151 0.430776 -0.856062 -0.285638 255 255 255 255 
2.10818 1.05602 1.13643 -0.84636 0.0401179 0.531098 255 255 255 255 
2.19485 1.08325 1.68327 0.264795 0.561495 -0.783969 255 255 255 255 
2.29445 1.09142 1.67426 0.0367007 -0.968223 0.247381 255 255 255 255 
2.21486 1.11759 1.87826 -0.122556 -0.988608 0.0873685 255 255 255 255 
2.25772 1.12906 2.00053 -0.112793 -0.0472613 -0.992494 255 255 255 255 
2.15707 1.08106 1.99771 0.344355 -0.529428 -0.775323 255 255 255 255 
2.12584 1.1327 1.96823 0.464541 -0.528758 -0.710364 255 255 255 255 
2.16958 0.0249268 2.15646 0.630743 0.15542 -0.760268 255 255 255 255 
2.09811 0.0456039 2.0793 -0.981507 0.147255 0.122313 255 255 255 255 
1.42689 1.145 0.705242 0.0510297 -0.9971 -0.0564565 255 255 255 255 
1.64161 1.13597 1.38158 -0.0925404 -0.993803 0.0615768 255 255 255 255 
2.20721 0.743006 3.09892 -0.981863 -0.0581152 0.180466 255 255 255 255 
1.48024 1.05676 1.02674 -0.413861 0.665601 -0.621042 255 255 255 255 
1.67356 1.11513 1.89262 -0.290338 -0.947522 0.133815 255 255 255 255 
1.88827 1.1401 3.0525 -0.126325 -0.986663 0.102654 255 255 255 255 
1.45668 1.1357 1.38021 -0.053944 -0.163606 -0.98505 255 255 255 255 
2.16082 1.12707 4.14124 -0.13175 -0.982372 -0.132614 255 255 255 255 
1.91464 1.16797 3.24805 -0.353633 -0.934447 0.0418654 255 255 255 255 
1.36103 1.1598 0.75996 0.471277 -0.864863 0.172944 255 255 255 255 
1.96429 1.12383 2.88575 0.0293038 -0.99566 0.0883299 255 255 255 255 
1.87368 1.19642 3.95894 -0.000902707 -0.998925 -0.0463378 255 255 255 255 
1.40372 1.17655 1.97513 -0.27861 -0.951148 -0.133016 255 255 255 255 
1.34592 1.1817 1.66968 0.123117 -0.717009 -0.686105 255 255 255 255 
1.40201 1.2337 1.6133 -0.452991 -0.891511 0.00278427 255 255 255 255 
1.28994 1.32229 1.86915 -0.80852 0.504083 -0.303636 255 255 255 255 
1.39287 1.2705 1.78514 -0.87851 -0.343133 -0.332385 255 255 255 255 
1.29918 1.25703 2.00026 -0.115637 -0.635402 -0.763474 255 255 255 255 
1.26955 1.21977 1.99148 -0.00375445 -0.615491 -0.788135 255 255 255 255 
2.16583 0.886427 2.86281 -0.991217 0.129616 -0.0262393 255 255 255 255 
2.13988 1.08273 2.05713 -0.441445 0.893472 -0.0826724 255 255 255 255 
2.06552 1.24115 1.34961 -0.578493 0.764969 -0.283138 255 255 255 255 
1.98249 1.13963 1.66788 -0.148258 -0.983666 0.102079 255 255 255 255 
1.67258 1.0561 0.561992 -0.147837 -0.892395 0.426351 255 255 255 255 
1.80048 1.06609 1.06272 -0.0611217 0.497556 -0.865276 255 255 255 255 
1.95383 1.13049 1.44627 0.145807 -0.985009 0.0921821 255 255 255 255 
1.7479 0.931911 1.587 -0.150381 -0.986361 -0.0669113 255 255 255 255 
1.86252 0.995879 2.18992 -0.556443 0.709655 -0.432159 255 255 255 255 
1.99933 1.09857 1.26035 -0.0268233 -0.701086 -0.712572 255 255 255 255 
2.25698 1.05902 1.07734 0.0728622 -0.867113 -0.492753 255 255 255 255 
2.30168 1.0661 1.14748 -0.455097 0.890156 0.0225774 255 255 255 255 
2.27768 1.06328 1.15446 -0.542871 0.823734 0.163567 255 255 255 255 
2.05404 1.04361 1.11032 -0.806321 -0.566926 0.168643 255 255 255 255 
2.24196 0.989693 2.03612 -0.0554099 -0.943747 0.325992 255 255 255 255 
1.89266 1.14919 2.92956 0.0293038 -0.99566 0.0883299 255 255 255 255 
2.3221 1.0442 1.87794 0.050755 -0.998583 0.0160017 255 255 255 255 
2.09893 1.06622 0.523556 0.160848 -0.986978 -0.00122894 255 255 255 255 
2.1167 1.06371 0.510085 0.160848 -0.986978 -0.00122895 255 255 255 255 
2.08756 1.07529 0.511011 0.160848 -0.986978 -0.00122895 255 255 255 255 
2.07951 1.0686 0.53827 0.160848 -0.986978 -0.00122895 255 255 255 255 
2.12679 1.09572 0.556177 0.212419 -0.96743 -0.137683 255 255 255 255 
2.43036 1.10851 1.19303 0.267811 -0.961216 -0.0658862 255 255 255 255 
1.85044 1.03997 0.50304 -0.00523458 -0.999979 -0.00386528 255 255 255 255 
2.01443 1.03512 1.19191 -0.338056 -0.925924 -0.168475 255 255 255 255 
2.00027 1.03088 0.477633 0.0510449 -0.945855 0.320552 255 255 255 255 
2.01071 1.01707 1.37842 -0.177666 -0.663211 -0.727039 255 255 255 255 
2.14508 1.03498 1.06519 0.0933734 -0.992059 -0.0842672 255 255 255 255 
1.84678 1.04511 0.530266 0.20232 -0.979317 -0.0024345 255 255 255 255 
2.08398 1.04231 0.691882 0.218649 -0.958339 0.183791 255 255 255 255 
1.89798 1.04689 0.473925 0.0574974 -0.968358 0.242852 255 255 255 255 
2.06494 0.98809 0.691018 0.223182 -0.972444 0.067399 255 255 255 255 
2.04358 1.03154 0.658552 -0.000195388 -0.947774 -0.318943 255 255 255 255 
1.78921 1.05395 0.619447 -0.54002 -0.838064 0.0776347 255 255 255 255 
1.97307 0.985026 1.53619 0.0763647 -0.904073 0.4205 255 255 255 255 
1.97861 1.01018 1.42293 -0.222869 -0.93856 -0.263506 255 255 255 255 
1.53538 1.05501 0.748038 0.177952 -0.706989 -0.68447 255 255 255 255 
2.06408 0.957185 0.914672 -0.55572 -0.530433 -0.640169 255 255 255 255 
1.53435 1.05368 0.922456 -0.751319 0.659642 0.0198207 255 255 255 255 
2.24836 1.05964 1.16224 -0.115103 -0.245696 -0.962489 255 255 255 255 
1.5464 1.04847 0.903043 -0.842458 0.53851 0.0164574 255 255 255 255 
2.18696 1.02425 1.14681 -0.0252981 -0.919763 0.391658 255 255 255 255 
2.20637 1.05336 1.49537 -0.0399558 -0.99915 -0.0101766 255 255 255 255 
1.77179 1.06299 0.884741 -0.0181827 -0.989491 0.143445 255 255 255 255 
2.05328 1.04235 1.20194 -0.606184 0.652948 -0.454093 255 255 255 255 
1.93131 1.06602 0.582698 0.397648 -0.91285 0.0926297 255 255 255 255 
1.79694 1.04139 0.511182 0.0145123 -0.999115 0.0394866 255 255 255 255 
2.14904 1.08384 0.640859 0.263378 -0.876228 -0.403554 255 255 255 255 
1.77447 1.0304 1.72706 -0.583963 0.641383 -0.49761 255 255 255 255 
1.37528 1.08681 0.746143 -0.304904 -0.794778 -0.524748 255 255 255 255 
1.86994 1.07059 0.573211 0.196766 -0.974691 0.106117 255 255 255 255 
1.5508 1.07268 0.894462 -0.811744 0.154338 0.56325 255 255 255 255 
1.77902 1.04524 0.462515 -0.011681 -0.994519 0.103906 255 255 255 255 
2.06911 1.08501 1.86358 0.302791 -0.934784 -0.185733 255 255 255 255 
1.85688 1.0383 0.536406 0.20232 -0.979317 -0.00243449 255 255 255 255 
1.86298 1.03898 0.569957 0.196766 -0.974691 0.106117 255 255 255 255 
2.15969 0.114909 2.20237 -0.999056 0.0404744 0.0158092 255 255 255 255 
1.93373 1.02137 1.22048 -0.422057 -0.815137 0.396761 255 255 255 255 
1.98306 1.02769 1.8157 -0.141474 -0.988633 -0.050896 255 255 255 255 
1.80966 1.00868 1.62166 -0.825678 0.330045 -0.457521 255 255 255 255 
1.44646 1.05744 0.772086 0.103678 -0.830661 -0.547041 255 255 255 255 
1.33453 1.05558 0.890453 -0.577266 -0.791321 -0.201434 255 255 255 255 
1.8528 1.04677 0.871821 0.476723 -0.867899 -0.139598 255 255 255 255 
2.11389 1.0701 1.55745 -0.150868 -0.988528 -0.00721994 255 255 255 255 
1.34513 1.09419 0.792129 -0.242794 -0.154917 -0.957628 255 255 255 255 
1.92584 1.04377 0.463608 0.153303 -0.946307 0.284609 255 255 255 255 
1.58562 1.04992 0.805384 -0.830955 -0.538951 -0.138006 255 255 255 255 
1.51964 1.04555 0.704239 0.362291 -0.835508 -0.413125 255 255 255 255 
1.70775 1.05413 1.32596 -0.304752 -0.899936 -0.311837 255 255 255 255 
1.8043 1.02961 1.01314 -0.330842 -0.0303784 -0.943197 255 255 255 255 
1.34848 1.04762 0.905934 -0.577266 -0.791321 -0.201434 255 255 255 255 
1.67424 1.04943 0.54751 -0.184625 -0.903608 0.386532 255 255 255 255 
2.11198 1.03025 0.977779 -0.905572 0.385416 0.177184 255 255 255 255 
1.52173 1.06539 0.786422 -0.247601 -0.947404 0.20278 255 255 255 255 
1.80987 1.05751 0.637596 0.192147 -0.9516 0.239868 255 255 255 255 
1.43552 1.06567 0.833464 -0.0527407 -0.98013 -0.191218 255 255 255 255 
1.58745 1.08778 1.25591 -0.831499 -0.55485 0.0274044 255 255 255 255 
2.31699 1.05544 1.36365 0.342501 -0.905676 -0.249887 255 255 255 255 
2.16762 1.04131 1.17624 -0.198547 -0.680641 -0.7052 255 255 255 255 
1.64165 1.09081 1.05681 -0.0759044 -0.980694 0.180214 255 255 255 255 
1.60241 1.05109 0.779463 0.276097 -0.842445 -0.462664 255 255 255 255 
1.87793 1.03426 1.14762 -0.207065 -0.68687 -0.696659 255 255 255 255 
1.73137 1.07269 1.81403 -0.210448 -0.951943 0.22252 255 255 255 255 
1.89675 1.02905 0.591676 0.397648 -0.91285 0.0926297 255 255 255 255 
1.92146 1.04543 1.0353 -0.909244 0.34312 0.235679 255 255 255 255 
1.40483 1.0692 0.757731 -0.162887 -0.845582 -0.508388 255 255 255 255 
2.25575 1.03233 0.767336 0.287394 -0.956146 -0.0564793 255 255 255 255 
2.09733 1.02814 1.19895 -0.192303 0.491262 -0.849518 255 255 255 255 
2.08784 1.04725 1.13929 -0.744391 0.566158 0.354043 255 255 255 255 
2.21978 0.612318 2.96167 -0.996668 -0.0244072 0.0778251 255 255 255 255 
2.18241 1.05872 1.13337 0.216423 -0.66788 -0.712108 255 255 255 255 
2.17804 0.856671 2.93996 -0.990147 0.0745067 0.118569 255 255 255 255 
1.31357 1.14093 0.862249 -0.851157 0.484498 -0.201972 255 255 255 255 
1.30381 1.16617 0.844757 -0.439298 0.757233 -0.483338 255 255 255 255 
2.17856 0.610404 2.91002 -0.996668 -0.0244072 0.0778251 255 255 255 255 
2.46281 -0.000197649 2.77574 -0.829135 -0.456494 0.32272 255 255 255 255 
1.85035 1.03796 0.615562 0.192147 -0.9516 0.239868 255 255 255 255 
2.21864 1.06058 1.46226 -0.0711345 -0.994947 -0.0708579 255 255 255 255 
1.90591 1.08664 0.653657 0.293955 -0.88736 0.355222 255 255 255 255 
1.61041 1.09561 0.916308 0.311432 -0.900431 -0.3037 255 255 255 255 
1.96247 1.12702 1.96617 -0.500201 -0.825342 -0.261936 255 255 255 255 
1.52184 1.0442 0.8353 -0.135234 -0.986963 -0.0872729 255 255 255 255 
1.54265 1.10501 0.930774 -0.701906 0.67173 0.236868 255 255 255 255 
1.49924 1.02837 0.983844 -0.680416 0.609338 -0.407113 255 255 255 255 
2.31607 1.1218 1.90498 0.0783496 -0.931765 0.354507 255 255 255 255 
1.86423 1.0581 1.03021 -0.394873 0.00394312 -0.918727 255 255 255 255 
1.54001 1.13603 0.887884 0.582413 -0.567771 -0.581748 255 255 255 255 
1.91295 1.07631 0.579032 0.397648 -0.91285 0.0926297 255 255 255 255 
1.96921 1.09014 0.567905 0.147423 -0.942091 0.301217 255 255 255 255 
2.49571 1.11614 0.545031 -0.603726 0.725667 0.330034 255 255 255 255 
2.35614 1.10034 0.459754 0.0484328 -0.938084 -0.343006 255 255 255 255 
2.50311 1.15101 0.612476 -0.723844 0.667753 0.173653 255 255 255 255 
2.05536 1.10563 0.871059 -0.380919 -0.887801 0.258282 255 255 255 255 
2.11412 1.1065 0.845618 0.0707527 -0.864454 0.497707 255 255 255 255 
2.41855 1.12389 0.422615 -0.603726 0.725667 0.330034 255 255 255 255 
2.22962 1.14438 0.65107 0.247404 -0.576384 -0.778827 255 255 255 255 
2.39678 1.12999 0.916325 0.183518 0.273822 -0.944109 255 255 255 255 
2.4557 1.14847 0.577092 -0.603726 0.725667 0.330034 255 255 255 255 
2.4614 1.19526 0.914973 -0.602719 0.00787389 -0.797914 255 255 255 255 
2.05394 0.121114 0.111625 -0.288269 -0.952898 0.0942723 255 255 255 255 
2.44795 1.02431 0.910905 0.354166 -0.907029 -0.227737 255 255 255 255 
2.48929 1.06542 0.746222 -0.438718 0.890348 0.121681 255 255 255 255 
2.47367 1.03968 0.757714 0.0625392 -0.99633 0.0584408 255 255 255 255 
2.47648 1.05027 0.786755 0.128685 -0.990708 -0.0440124 255 255 255 255 
2.47485 1.04743 0.831526 0.128685 -0.990708 -0.0440124 255 255 255 255 
2.45477 1.03736 0.850332 0.00935952 -0.999572 -0.0277138 255 255 255 255 
2.44464 1.03299 0.911906 -0.92778 -0.289532 -0.235364 255 255 255 255 
2.39128 1.0453 0.895623 -0.465842 0.186696 0.864948 255 255 255 255 
2.1717 1.06456 1.1831 -0.0120348 0.585789 -0.810374 255 255 255 255 
2.41167 1.06924 0.526528 -0.603726 0.725667 0.330034 255 255 255 255 
2.42307 1.01024 0.570931 -0.10207 -0.944031 -0.313669 255 255 255 255 
2.32145 1.08934 0.6687 -0.321751 -0.863882 0.387536 255 255 255 255 
2.3551 1.03097 0.844329 0.00139478 -0.892999 -0.450056 255 255 255 255 
2.17123 1.10881 0.796582 -0.481941 0.70181 -0.524591 255 255 255 255 
2.32741 1.00907 0.904791 -0.0389975 -0.916176 -0.398875 255 255 255 255 
2.34081 1.02284 0.97253 0.0887722 -0.929861 -0.35704 255 255 255 255 
2.26442 1.01689 0.90017 -0.103968 -0.980514 0.16668 255 255 255 255 
2.19735 1.02153 0.82833 -0.491353 -0.869041 0.0577963 255 255 255 255 
2.4585 1.06413 0.905148 -0.92778 -0.289532 -0.235364 255 255 255 255 
2.49849 1.06202 0.555619 -0.603726 0.725667 0.330034 255 255 255 255 
2.43099 1.02088 0.63256 -0.0547383 -0.994197 -0.0926119 255 255 255 255 
2.14613 1.05554 0.794514 -0.682012 -0.712391 -0.165407 255 255 255 255 
2.47854 1.12295 1.21989 -0.249476 0.755472 -0.605825 255 255 255 255 
2.43053 0.992082 1.09856 -0.878015 -0.473551 -0.0695661 255 255 255 255 
2.12055 1.01641 0.92613 -0.800923 0.442997 0.402834 255 255 255 255 
2.10141 1.0249 0.896013 0.391554 -0.410229 -0.823649 255 255 255 255 
2.24206 1.06685 0.672648 -0.0144511 -0.406156 -0.913689 255 255 255 255 
2.2921 1.04136 0.666577 0.0709702 -0.731622 0.678006 255 255 255 255 
2.20355 1.05929 0.699881 0.00797764 -0.99879 0.0485356 255 255 255 255 
2.3585 1.10857 1.10581 0.121882 -0.959211 -0.255066 255 255 255 255 
2.39438 1.07351 1.18313 -0.439754 -0.872087 0.214662 255 255 255 255 
2.30162 1.05367 0.898894 0.209557 -0.977609 0.0191674 255 255 255 255 
2.20843 1.02625 0.915029 0.152404 -0.940892 0.302483 255 255 255 255 
2.14363 1.03773 0.765441 -0.113537 -0.991997 -0.0552428 255 255 255 255 
2.17617 1.092 1.07489 -0.845305 0.494051 0.203404 255 255 255 255 
2.13379 1.03421 0.837292 -0.811016 -0.450844 -0.372817 255 255 255 255 
2.41545 0.969722 0.950343 0.219434 -0.960106 -0.173337 255 255 255 255 
2.32365 1.09627 0.785431 0.00784804 -0.985435 -0.169873 255 255 255 255 
2.36647 1.04815 0.655835 -0.131939 -0.988419 0.074965 255 255 255 255 
2.22978 1.04074 0.635477 -0.167492 -0.977014 0.131873 255 255 255 255 
2.41449 1.04975 1.74661 -0.396431 -0.850523 0.345619 255 255 255 255 
2.41991 1.15696 2.06638 0.311917 -0.938987 -0.14495 255 255 255 255 
2.40874 1.14653 2.11871 0.322155 -0.943923 -0.072282 255 255 255 255 
2.35545 1.14436 1.77259 0.253303 -0.929465 -0.268203 255 255 255 255 
2.10221 1.13 1.18141 -0.698524 -0.33206 0.633878 255 255 255 255 
2.39352 1.11475 1.8454 -0.465578 0.860494 -0.206853 255 255 255 255 
2.39638 1.1075 2.20722 0.280553 -0.959044 0.0390616 255 255 255 255 
1.95641 1.12238 1.01546 0.235812 -0.970012 0.0588941 255 255 255 255 
2.389 1.02405 1.7231 -0.530291 -0.765983 0.363403 255 255 255 255 
1.9406 1.11222 1.12131 -0.617635 0.774355 0.137481 255 255 255 255 
1.8881 1.10512 0.963837 0.220776 -0.973328 0.0623732 255 255 255 255 
2.46126 1.04967 0.98239 -0.566557 -0.482546 -0.667954 255 255 255 255 
2.31181 1.07089 0.656955 -0.0483107 0.0428493 -0.997913 255 255 255 255 
2.34394 1.05296 0.842089 0.297421 -0.940061 -0.166813 255 255 255 255 
2.19343 1.0864 0.625455 -0.619742 -0.578997 0.529796 255 255 255 255 
2.4455 1.01964 0.962459 -0.566557 -0.482546 -0.667954 255 255 255 255 
2.19784 1.06486 0.757605 -0.0359543 -0.980763 -0.191861 255 255 255 255 
2.43469 1.09734 1.22169 -0.249476 0.755472 -0.605825 255 255 255 255 
2.21235 1.07473 0.701515 -0.763048 0.622366 0.17441 255 255 255 255 
2.41985 1.00744 1.14943 -0.583168 -0.446927 0.678359 255 255 255 255 
2.23509 1.02129 1.1649 -0.252187 0.869159 -0.425399 255 255 255 255 
2.19048 1.11454 1.1059 0.158725 -0.984379 0.0761814 255 255 255 255 
2.0694 1.12842 0.929376 -0.0633909 -0.995527 0.0700594 255 255 255 255 
2.01377 1.11539 0.915172 0.009894 -0.999704 0.0222242 255 255 255 255 
1.85409 1.12039 0.916147 -0.0915615 -0.994705 -0.0466816 255 255 255 255 
2.43839 1.10838 1.7992 -0.989741 0.0231671 0.140984 255 255 255 255 
2.26643 1.07363 1.51253 -0.104513 0.81683 -0.567332 255 255 255 255 
2.3428 1.14143 1.95271 0.212704 -0.959684 0.183747 255 255 255 255 
2.28164 1.08101 0.702108 -0.07233 -0.977105 -0.200087 255 255 255 255 
2.22523 1.10117 0.665257 -0.371726 0.0170287 0.928186 255 255 255 255 
2.25797 1.0961 0.757507 -0.00108678 -0.997014 0.0772165 255 255 255 255 
2.33869 1.1208 1.22516 -0.110586 -0.946143 0.304277 255 255 255 255 
2.26214 1.12635 1.11713 -0.123807 -0.93694 -0.326827 255 255 255 255 
2.21764 1.12888 1.0303 0.119505 -0.97274 -0.198734 255 255 255 255 
2.38415 1.07007 1.48447 -0.526482 0.829807 -0.185034 255 255 255 255 
2.16194 1.08189 1.05172 -0.769996 0.626918 -0.118658 255 255 255 255 
2.13497 1.04015 1.34979 0.449894 -0.66446 -0.596731 255 255 255 255 
2.11753 0.98185 1.14082 -0.0220715 -0.996958 0.0747451 255 255 255 255 
2.18571 1.1078 0.944068 -0.736619 -0.661414 0.141155 255 255 255 255 
2.07176 1.10478 0.808707 -0.249355 -0.77357 0.58259 255 255 255 255 
2.19234 1.11733 1.23048 -0.390339 -0.793911 0.466198 255 255 255 255 
1.90606 1.12132 0.811041 -0.0307152 -0.965487 -0.258635 255 255 255 255 
2.33348 1.13311 1.57026 0.118241 -0.981933 0.147737 255 255 255 255 
2.35563 1.08003 1.903 -0.63417 0.73322 -0.245392 255 255 255 255 
2.28686 1.12909 2.03125 -0.112793 -0.0472613 -0.992494 255 255 255 255 
2.00337 1.12425 1.15073 -0.301472 -0.878176 0.371379 255 255 255 255 
1.93541 1.10658 1.2889 -0.293691 -0.945658 -0.13956 255 255 255 255 
1.59609 1.10783 1.29998 -0.766555 0.580485 -0.274645 255 255 255 255 
1.87168 1.12834 1.64232 0.417836 -0.899956 -0.124465 255 255 255 255 
1.51804 1.1664 2.3426 0.0682755 -0.89618 -0.438406 255 255 255 255 
1.92616 1.15112 1.97479 -0.118639 -0.94392 -0.308123 255 255 255 255 
1.8849 1.13122 0.944645 0.19897 -0.977603 -0.0685855 255 255 255 255 
2.03974 1.16171 0.861668 -0.159765 -0.971803 0.173421 255 255 255 255 
2.16745 1.11905 1.22177 -0.17112 -0.599679 0.781731 255 255 255 255 
2.15735 1.13915 1.24074 -0.0254415 -0.999309 -0.0271158 255 255 255 255 
2.18198 1.12987 1.57808 0.234945 -0.921207 0.310126 255 255 255 255 
1.85529 1.12543 0.940817 -0.163897 -0.977316 -0.134128 255 255 255 255 
2.12535 1.09623 1.46945 -0.391255 -0.820351 -0.417065 255 255 255 255 
2.49901 1.16124 1.20934 0.267811 -0.961216 -0.0658862 255 255 255 255 
2.08378 1.1216 1.15061 -0.566924 -0.486506 -0.664762 255 255 255 255 
2.27931 1.11919 2.16279 0.197858 -0.980221 0.00431732 255 255 255 255 
2.34508 1.1377 1.99992 0.249643 -0.951799 0.178204 255 255 255 255 
2.05625 1.08028 1.31674 0.376672 -0.916493 0.134753 255 255 255 255 
1.88242 1.12469 0.82455 0.274931 -0.959758 0.0572491 255 255 255 255 
1.99523 1.11082 0.795745 -0.102559 -0.994659 0.0116069 255 255 255 255 
1.8973 1.15023 0.766693 -0.0338595 -0.848883 -0.527496 255 255 255 255 
1.89117 1.14523 0.847691 0.107667 -0.989598 -0.0954159 255 255 255 255 
1.91307 1.13037 0.817835 -0.0132835 -0.99932 -0.0343874 255 255 255 255 
1.81667 1.1164 0.827445 -0.60925 0.429523 0.666577 255 255 255 255 
1.86783 1.14529 2.35823 -0.20913 -0.868001 0.450377 255 255 255 255 
1.52878 1.12206 1.80563 -0.497875 -0.866543 0.0349706 255 255 255 255 
2.20547 1.08077 2.92238 -0.3647 -0.726003 -0.583021 255 255 255 255 
2.23099 1.03357 2.87554 -0.21072 -0.45035 -0.86763 255 255 255 255 
1.5063 1.12296 1.11408 -0.613483 0.751771 -0.241823 255 255 255 255 
1.5234 1.11168 1.12078 -0.613483 0.751771 -0.241823 255 255 255 255 
1.46949 1.10506 1.71271 0.314548 -0.949079 -0.0175627 255 255 255 255 
1.8339 1.11235 2.31071 -0.20913 -0.868001 0.450377 255 255 255 255 
2.02211 1.08395 1.26972 -0.0813345 -0.747074 -0.659746 255 255 255 255 
1.85195 1.13543 0.897755 0.0716395 -0.99709 -0.0260479 255 255 255 255 
1.82164 1.14117 0.768637 -0.132386 -0.826489 -0.547165 255 255 255 255 
1.80359 1.18673 0.792172 -0.0741925 -0.874793 -0.478782 255 255 255 255 
1.57162 1.12619 0.888401 -0.766697 0.444672 0.46308 255 255 255 255 
1.93848 1.14057 0.821004 0.14333 -0.988034 -0.0569684 255 255 255 255 
1.58883 1.10897 0.966656 -0.901782 0.431173 0.0296483 255 255 255 255 
2.27952 1.0984 2.15123 0.268615 -0.961401 0.0596244 255 255 255 255 
2.41009 1.1119 1.76494 -0.985248 0.0559216 0.161736 255 255 255 255 
2.3961 1.14534 2.19496 0.280553 -0.959044 0.0390617 255 255 255 255 
2.4153 1.11404 1.87775 -0.434254 0.889462 -0.142412 255 255 255 255 
2.26413 1.12965 1.70788 -0.0742031 -0.860134 0.504642 255 255 255 255 
2.34643 1.11398 1.73269 -0.469071 -0.845491 0.255181 255 255 255 255 
2.34337 1.12005 1.67331 -0.494718 0.869006 0.00908632 255 255 255 255 
2.37767 1.10158 1.49731 -0.456012 -0.366796 -0.810872 255 255 255 255 
2.23702 1.11713 1.71166 -0.181338 -0.840725 0.510194 255 255 255 255 
2.31836 1.10999 1.20385 0.0525906 -0.897633 0.437596 255 255 255 255 
2.2169 1.11394 1.16078 -0.578375 0.567907 -0.585631 255 255 255 255 
2.36363 1.09951 1.10792 0.121882 -0.959211 -0.255066 255 255 255 255 
1.43126 1.12841 3.02682 -0.0476405 -0.987556 0.149881 255 255 255 255 
1.44221 1.09608 2.84462 0.208464 0.0331621 -0.977468 255 255 255 255 
2.20511 1.07219 2.10519 0.312504 -0.948843 -0.0451369 255 255 255 255 
1.39509 1.11279 2.29707 0.159477 -0.982214 -0.0991109 255 255 255 255 
1.43241 1.13368 2.85056 0.524737 -0.540013 -0.658055 255 255 255 255 
1.37462 1.10602 2.78619 0.369937 -0.893675 -0.253952 255 255 255 255 
1.41264 1.07842 2.42416 -0.512827 -0.857703 -0.0368021 255 255 255 255 
1.40308 1.06936 2.58837 0.505153 0.423649 -0.751892 255 255 255 255 
1.53694 1.09515 1.78061 -0.155096 -0.980921 -0.117213 255 255 255 255 
1.43962 1.09253 1.69588 -0.638641 -0.729606 -0.244567 255 255 255 255 
1.87464 1.11658 0.947393 -0.163897 -0.977316 -0.134128 255 255 255 255 
1.68832 1.13448 0.946568 0.125991 -0.981929 0.141216 255 255 255 255 
1.55637 1.11953 1.06444 -0.159692 -0.963073 0.216771 255 255 255 255 
1.92947 1.1293 1.13039 -0.688064 -0.506032 0.520096 255 255 255 255 
1.7877 1.10505 1.31843 -0.0528302 -0.99813 -0.0307451 255 255 255 255 
1.4729 1.04696 2.4221 -0.087949 -0.937936 -0.33547 255 255 255 255 
2.1625 1.16334 2.40092 -0.0996534 -0.985399 0.138052 255 255 255 255 
2.40872 1.15535 1.42847 -0.62974 0.691106 0.354682 255 255 255 255 
1.51511 1.14368 1.92606 0.143108 -0.988618 -0.0464216 255 255 255 255 
2.20219 1.10566 2.00481 0.257728 -0.570532 -0.779788 255 255 255 255 
2.20483 1.12174 1.03318 0.119505 -0.97274 -0.198734 255 255 255 255 
2.31241 1.10569 1.23534 -0.0681337 -0.783526 0.617613 255 255 255 255 
2.1287 1.0868 1.62927 -0.108733 -0.954045 0.279241 255 255 255 255 
2.17731 1.15865 1.68431 -0.0709278 -0.956242 0.283851 255 255 255 255 
2.22042 1.08552 2.11669 0.477967 -0.868837 -0.129111 255 255 255 255 
1.90468 1.10646 1.42661 -0.160074 -0.973753 0.161805 255 255 255 255 
2.18007 1.10617 1.00718 0.134319 -0.89547 -0.424372 255 255 255 255 
1.86653 1.10731 0.841305 -0.40895 0.866325 -0.286776 255 255 255 255 
1.80985 1.12567 0.86885 0.463198 -0.885323 0.0406323 255 255 255 255 
1.99544 1.12433 2.40429 -0.119672 -0.915157 0.384923 255 255 255 255 
1.68373 1.13143 1.04719 0.0439761 -0.992754 -0.11183 255 255 255 255 
2.36206 2.10551 4.49722 0.129154 0.0425732 -0.99071 255 255 255 255 
2.06588 1.12174 1.26746 0.40051 -0.914794 -0.0523866 255 255 255 255 
1.5781 1.13887 1.30564 -0.0712373 0.481605 -0.873488 255 255 255 255 
2.44905 1.04711 1.63772 -0.824168 -0.393909 0.40692 255 255 255 255 
2.12694 1.08806 1.64949 -0.182275 -0.782849 0.594915 255 255 255 255 
2.34483 1.10583 1.53022 0.260917 -0.952447 0.157373 255 255 255 255 
2.11277 1.08845 1.17304 -0.96582 -0.135569 0.220938 255 255 255 255 
2.46678 1.10643 1.26567 0.18259 -0.982665 0.0320918 255 255 255 255 
2.44985 1.109 1.45963 -0.606131 0.783851 0.134845 255 255 255 255 
2.02354 1.1285 1.11835 -0.74512 -0.649218 -0.152682 255 255 255 255 
1.45234 1.10994 1.69379 -0.638641 -0.729606 -0.244567 255 255 255 255 
1.48395 1.09788 1.56559 -0.642095 0.764267 0.0600851 255 255 255 255 
1.84692 1.12123 0.976382 0.0401973 -0.999187 -0.00309384 255 255 255 255 
1.8107 1.10141 0.815341 0.0937527 -0.656677 -0.748322 255 255 255 255 
1.70176 1.10133 0.88863 0.218473 -0.855848 0.468821 255 255 255 255 
1.70123 1.09981 0.895148 0.0567865 -0.967402 0.246798 255 255 255 255 
1.57162 1.09684 1.28806 -0.643669 -0.521784 0.55985 255 255 255 255 
2.12831 1.16726 1.33095 -0.376791 -0.853667 0.359557 255 255 255 255 
2.17615 1.1103 1.3939 -0.112493 -0.922129 -0.370167 255 255 255 255 
1.68284 1.16114 1.33096 0.0596213 -0.982118 -0.178579 255 255 255 255 
1.91945 1.08115 1.32178 -0.781659 -0.370711 -0.50158 255 255 255 255 
2.03942 1.1137 1.11515 -0.277453 -0.960334 -0.0279025 255 255 255 255 
1.88788 1.11478 0.92152 -0.111585 -0.971673 -0.208326 255 255 255 255 
2.40519 1.10305 1.24463 0.011483 -0.999545 0.0278978 255 255 255 255 
1.92222 1.10922 1.09567 0.0521028 -0.997871 -0.0392177 255 255 255 255 
1.74875 1.12179 0.954045 -0.020472 -0.975206 0.22035 255 255 255 255 
1.89007 1.13191 1.07872 -0.0280235 -0.998917 -0.0371313 255 255 255 255 
2.22207 1.12311 1.01571 0.0510509 -0.993814 -0.0986314 255 255 255 255 
2.29388 1.1105 2.03922 -0.112793 -0.0472613 -0.992494 255 255 255 255 
2.23305 1.12042 2.01649 -0.0530112 -0.0525542 -0.99721 255 255 255 255 
1.58403 1.09114 1.71257 0.014161 -0.972606 0.232027 255 255 255 255 
1.82132 1.09598 1.72514 -0.491181 0.839863 -0.231023 255 255 255 255 
1.73466 1.10602 1.02148 -0.0754997 -0.917093 -0.39146 255 255 255 255 
1.94867 1.27533 2.17557 -0.314073 -0.896582 -0.312249 255 255 255 255 
1.7869 1.12639 1.82486 0.00165268 -0.866067 0.499926 255 255 255 255 
