ply
format ascii 1.0
comment VCGLIB generated
element vertex 665
property float x
property float y
property float z
property float nx
property float ny
property float nz
property uchar red
property uchar green
property uchar blue
property uchar alpha
element face 0
property list uchar int vertex_indices
end_header
1.00806 0.325466 1.52242 0.0388401 -0.019663 -0.999052 255 255 255 255 
1.03018 0.379833 1.48037 0.478433 0.356233 -0.802621 255 255 255 255 
-1.41138 0.64465 2.23729 0.608038 0.624701 -0.489936 255 255 255 255 
1.02717 0.348367 1.4754 0.377073 0.393904 -0.838246 255 255 255 255 
1.06079 0.391909 1.44263 -0.971012 -0.0544003 -0.23276 255 255 255 255 
-1.5486 0.333873 0.621388 0.401021 0.816523 -0.415298 255 255 255 255 
0.800402 0.344199 1.39983 0.0445147 -0.996878 0.0652059 255 255 255 255 
-0.602905 0.245013 1.0359 0.0593452 0.632291 -0.772455 255 255 255 255 
-1.87555 0.0304325 1.68671 -0.225089 -0.754094 -0.61699 255 255 255 255 
1.02875 0.360087 1.48495 -0.906924 0.417758 -0.0544697 255 255 255 255 
-1.5723 0.636444 2.20157 0.479756 0.869841 -0.114937 255 255 255 255 
-0.70852 0.668062 1.96126 -0.269012 -0.962944 0.0192621 255 255 255 255 
0.515217 0.390874 1.73699 -0.340758 -0.878372 -0.335181 255 255 255 255 
0.0105046 0.384261 1.67394 -0.0294214 -0.994617 -0.0993594 255 255 255 255 
0.533744 0.404103 1.70771 -0.280417 -0.947708 -0.152369 255 255 255 255 
-0.730091 0.678343 2.06211 -0.454968 -0.890212 -0.0229601 255 255 255 255 
-1.11548 0.555895 2.19209 0.725968 -0.595881 -0.343362 255 255 255 255 
-0.759394 0.667027 1.88333 -0.310317 -0.92869 -0.203072 255 255 255 255 
0.506654 0.396277 1.70038 -0.173049 -0.980612 -0.0919431 255 255 255 255 
0.0594346 0.537728 1.89217 -0.206874 -0.977703 -0.03605 255 255 255 255 
-1.9925 0.550816 2.29865 -0.0544487 0.870112 -0.489838 255 255 255 255 
1.01006 0.266557 1.46494 0.604729 -0.0780986 -0.792593 255 255 255 255 
1.02073 0.253767 1.47955 0.814274 -0.180751 -0.551623 255 255 255 255 
0.970407 0.295511 1.56385 0.222203 0.593669 -0.773423 255 255 255 255 
1.01755 0.348547 1.46651 0.332579 -0.167854 -0.928017 255 255 255 255 
1.00924 0.264273 1.51762 -0.197344 0.117976 -0.97321 255 255 255 255 
1.02565 0.333343 1.5119 -0.568818 -0.0574365 -0.820456 255 255 255 255 
-2.76277 0.733328 2.32892 -0.0179858 -0.607551 -0.794077 255 255 255 255 
0.827999 0.400615 1.44004 -0.460245 -0.813644 0.355187 255 255 255 255 
-0.12084 0.561745 1.92078 -0.464906 -0.109965 -0.878505 255 255 255 255 
-1.147 0.40192 2.16229 0.601408 -0.727425 -0.330397 255 255 255 255 
1.00349 0.346303 1.46997 0.250358 -0.163475 -0.954252 255 255 255 255 
1.01379 0.368495 1.46545 0.680303 -0.196032 -0.706229 255 255 255 255 
-2.47185 0.100643 2.38408 0.646939 -0.346828 0.679102 255 255 255 255 
-0.661356 0.521856 2.06319 0.226747 -0.946583 0.229275 255 255 255 255 
-0.799158 0.526045 2.15746 0.35352 0.872378 -0.337609 255 255 255 255 
1.17031 0.445801 1.45986 0.423763 0.0302955 -0.905266 255 255 255 255 
-3.11546 0.694334 2.32611 -0.452815 0.185635 -0.872066 255 255 255 255 
0.973834 0.383239 1.54287 -0.950736 -0.168656 -0.260107 255 255 255 255 
0.967474 0.36562 1.56505 -0.308836 -0.892276 -0.329339 255 255 255 255 
0.979868 0.336665 1.55742 -0.78702 0.101437 -0.608531 255 255 255 255 
1.01243 0.339148 1.36959 -0.567688 -0.518335 -0.639577 255 255 255 255 
1.005 0.39056 1.52181 -0.0224915 -0.687339 -0.725989 255 255 255 255 
1.06243 0.398197 1.45868 -0.687961 -0.713278 0.133953 255 255 255 255 
1.04935 0.357924 1.44954 -0.429015 0.00788468 -0.903263 255 255 255 255 
-0.868569 0.584673 2.18039 0.368146 0.826242 -0.426372 255 255 255 255 
0.534205 0.397559 1.71059 -0.280417 -0.947708 -0.152369 255 255 255 255 
-1.47765 0.642493 1.94077 0.493644 0.868059 0.0528111 255 255 255 255 
-0.693902 0.651407 2.04245 -0.167108 -0.981842 0.0897818 255 255 255 255 
0.0703951 0.546935 1.96734 0.334603 0.578762 -0.74369 255 255 255 255 
-1.142 0.374896 2.14758 0.601408 -0.727425 -0.330397 255 255 255 255 
1.02403 0.323378 1.50412 -0.725135 0.408568 -0.554303 255 255 255 255 
0.973437 0.299223 1.55508 -0.267795 -0.370485 -0.889397 255 255 255 255 
1.06506 0.390088 1.41783 -0.523145 -0.782882 -0.336773 255 255 255 255 
1.00404 0.35719 1.31504 0.0118285 -0.982042 0.188292 255 255 255 255 
-0.899093 0.399084 1.00753 0.0630848 0.927733 -0.367875 255 255 255 255 
0.828324 0.365128 1.20213 -0.233733 -0.879672 0.41418 255 255 255 255 
0.982503 0.356298 1.2215 0.394313 0.686193 -0.611275 255 255 255 255 
-1.46478 0.608187 2.07841 0.677795 0.72115 -0.143307 255 255 255 255 
1.16875 0.431065 1.56063 0.518306 -0.720081 -0.461348 255 255 255 255 
-0.147123 0.4067 0.985958 0.0152925 -0.999619 0.0229987 255 255 255 255 
0.963734 0.267979 1.55961 0.245877 0.172512 -0.953826 255 255 255 255 
1.00603 0.388884 1.52274 -0.0710533 -0.685369 -0.724721 255 255 255 255 
-1.33361 0.366117 1.08352 -0.0387449 -0.976373 0.212592 255 255 255 255 
-1.99796 0.356406 1.11564 -0.105504 -0.935611 -0.336899 255 255 255 255 
-0.799387 0.331728 0.987203 0.579335 0.17039 -0.797081 255 255 255 255 
1.06878 0.573344 1.60391 -0.700715 0.294405 -0.649865 255 255 255 255 
-0.592868 0.515638 1.98677 -0.276839 -0.62796 -0.727342 255 255 255 255 
1.09133 0.389605 1.36137 -0.864537 0.416229 -0.281653 255 255 255 255 
0.280235 0.419264 1.71126 0.00279644 0.930152 -0.367165 255 255 255 255 
1.02795 0.385765 1.50864 -0.284572 0.80042 -0.527586 255 255 255 255 
0.224158 0.547393 1.91406 -0.0267999 0.722198 -0.691167 255 255 255 255 
-2.45958 0.265892 2.41822 -0.389801 -0.336773 -0.857111 255 255 255 255 
1.09643 0.34894 1.31887 0.369746 -0.511627 -0.775581 255 255 255 255 
0.738038 0.375782 1.17783 -0.446876 -0.862102 -0.23892 255 255 255 255 
0.825698 0.377302 1.2165 -0.434497 -0.703286 -0.562673 255 255 255 255 
-0.958878 0.214149 0.906253 0.170782 -0.148412 -0.974067 255 255 255 255 
-1.49078 0.359441 0.691699 0.21441 0.967363 -0.135047 255 255 255 255 
-1.17676 0.343971 1.18205 -0.00648697 -0.99537 0.095898 255 255 255 255 
-1.98007 0.278337 1.19498 -0.29402 -0.549666 -0.781933 255 255 255 255 
0.820743 0.345035 1.27893 0.0899554 -0.856069 -0.508974 255 255 255 255 
0.726016 0.360573 1.19854 -0.317493 -0.917871 0.23814 255 255 255 255 
0.937028 0.35826 1.27243 0.653447 -0.665527 -0.360667 255 255 255 255 
1.02151 0.40659 1.21557 -0.638614 -0.73815 0.217501 255 255 255 255 
-0.929193 0.308981 1.18399 0.364926 0.763563 -0.53273 255 255 255 255 
0.971481 0.356504 1.22481 0.513725 -0.831876 -0.209929 255 255 255 255 
1.10671 0.382141 1.27236 -0.230352 -0.972873 -0.0213492 255 255 255 255 
-0.569506 0.155439 1.0013 0.0255795 0.56372 -0.82557 255 255 255 255 
-2.96083 0.230686 2.24713 0.623129 -0.140246 -0.769443 255 255 255 255 
0.84899 0.334751 1.33191 -0.169685 -0.700488 -0.693198 255 255 255 255 
1.02753 0.385015 1.48837 -0.747415 -0.641599 0.172401 255 255 255 255 
-0.936921 0.426477 1.70175 0.206919 -0.966309 0.153076 255 255 255 255 
0.948267 0.30038 1.56281 -0.112174 0.6706 -0.733289 255 255 255 255 
-0.389966 0.563995 2.01317 -0.00597443 -0.025187 -0.999665 255 255 255 255 
-0.912841 0.469962 1.84601 -0.417588 0.15672 -0.895019 255 255 255 255 
1.02177 0.298973 1.22773 0.105777 0.245415 -0.96363 255 255 255 255 
0.985941 0.379968 1.53129 -0.796751 -0.02767 -0.603674 255 255 255 255 
0.764448 0.296768 1.17256 -0.628431 -0.0118254 -0.777776 255 255 255 255 
0.0234447 0.494168 1.85664 0.260577 -0.90606 -0.3334 255 255 255 255 
-0.625204 0.510621 2.18928 -0.244582 -0.939142 -0.24123 255 255 255 255 
0.903231 0.390745 1.32777 -0.260507 -0.948961 -0.177789 255 255 255 255 
-0.754046 0.50841 2.227 -0.288642 -0.910795 -0.295192 255 255 255 255 
1.06013 0.34939 1.33763 -0.075206 -0.345724 -0.935318 255 255 255 255 
0.975827 0.390814 1.538 -0.913529 -0.0351096 -0.405256 255 255 255 255 
0.862298 0.340169 1.33579 0.416561 -0.87909 -0.231684 255 255 255 255 
1.0261 0.347873 1.38266 0.0716814 -0.875676 -0.47755 255 255 255 255 
1.01014 0.281529 1.5181 -0.762888 0.52975 -0.370629 255 255 255 255 
0.965012 0.402142 1.57104 -0.946103 -0.084226 -0.312722 255 255 255 255 
1.0379 0.395943 1.5185 -0.433257 -0.853799 0.288646 255 255 255 255 
1.04908 0.34716 1.37633 -0.982568 -0.0629813 0.174908 255 255 255 255 
1.07376 0.365498 1.36254 -0.957365 0.0490527 -0.284684 255 255 255 255 
0.818357 0.343023 1.3783 0.0704725 -0.997335 0.0189023 255 255 255 255 
-1.23067 0.34913 1.41984 0.0125486 -0.998019 0.0616496 255 255 255 255 
-2.58073 0.220047 0.830974 0.55032 -0.658461 -0.513397 255 255 255 255 
1.10676 0.343515 1.32565 -0.850866 -0.195892 0.487497 255 255 255 255 
1.05035 0.340686 1.34432 -0.631175 -0.493375 -0.598498 255 255 255 255 
0.920555 0.359403 1.23228 0.0987966 -0.982937 0.155161 255 255 255 255 
0.849363 0.365243 1.2155 -0.743575 0.564244 -0.358782 255 255 255 255 
-0.0960318 0.388129 0.980395 -0.0450306 -0.994324 0.0963943 255 255 255 255 
0.95746 0.355856 1.21465 -0.345503 -0.938401 -0.00560748 255 255 255 255 
1.00746 0.3272 1.22191 0.556577 -0.229645 -0.798427 255 255 255 255 
-2.30129 0.28242 1.63775 0.408044 0.8986 -0.161303 255 255 255 255 
0.817985 0.393124 1.19943 -0.619999 0.0188748 -0.784375 255 255 255 255 
-3.23605 0.0971491 1.45076 0.97786 -0.14612 -0.149795 255 255 255 255 
-1.52745 0.331178 1.18693 0.169478 0.319892 -0.932173 255 255 255 255 
0.89146 0.355482 1.19938 -0.299058 -0.951212 0.0759016 255 255 255 255 
-0.0475311 0.388548 0.984717 -0.837147 -0.53877 0.0944056 255 255 255 255 
0.778656 0.376326 1.1762 -0.516465 -0.0933235 -0.851208 255 255 255 255 
1.0087 0.283311 1.48258 -0.869966 -0.349509 0.347854 255 255 255 255 
-1.07 0.26727 0.881225 0.156015 -0.812302 -0.561983 255 255 255 255 
1.04447 0.394415 1.47447 -0.421078 -0.595101 -0.684506 255 255 255 255 
-1.9132 0.350699 0.959588 0.566628 -0.823473 0.0287228 255 255 255 255 
-1.56515 0.19875 1.65002 -0.523234 -0.377107 -0.76421 255 255 255 255 
0.0232564 0.38818 1.67066 -0.0294214 -0.994617 -0.0993594 255 255 255 255 
-0.862135 0.467058 1.792 -0.15902 0.742796 -0.650359 255 255 255 255 
0.177118 0.56564 1.985 -0.0298377 0.847617 -0.52977 255 255 255 255 
0.170049 0.579803 2.02606 -0.0298376 0.847617 -0.52977 255 255 255 255 
0.832844 0.377759 1.71072 -0.290271 0.668055 -0.685161 255 255 255 255 
0.480482 0.545133 1.79998 -0.877019 0.0635088 -0.476239 255 255 255 255 
1.01477 0.2753 1.4708 0.497318 -0.191207 -0.846236 255 255 255 255 
1.02345 0.342344 1.47507 -0.00278089 0.240667 -0.970604 255 255 255 255 
1.03005 0.385797 1.49455 -0.719528 -0.693902 0.0279144 255 255 255 255 
-0.712649 0.635034 1.96277 -0.243595 -0.961854 0.124491 255 255 255 255 
0.147031 0.473172 1.92608 0.0769679 0.734721 -0.673989 255 255 255 255 
-0.649686 0.485022 2.16669 0.294432 -0.93996 0.172586 255 255 255 255 
-1.63669 0.718189 1.99629 0.0259345 0.674663 -0.73767 255 255 255 255 
-1.8549 0.285341 2.23928 0.111194 0.584383 -0.803824 255 255 255 255 
0.78522 1.10153 1.83372 0.0562822 -0.998346 0.0117491 255 255 255 255 
0.764148 1.09921 1.82968 0.00581105 -0.999977 -0.0035545 255 255 255 255 
0.836128 0.389133 1.40921 -0.0749496 -0.87978 -0.469435 255 255 255 255 
0.850016 0.34507 1.39864 -0.158696 0.955916 -0.247065 255 255 255 255 
-1.08038 0.000233933 1.73592 -0.425877 -0.0695437 -0.902104 255 255 255 255 
1.02646 0.338698 1.33155 -0.360379 -0.928231 0.0922778 255 255 255 255 
1.08445 0.39047 1.34714 -0.442139 0.56209 -0.698977 255 255 255 255 
-1.01305 0.173363 1.58912 -0.644994 -0.566222 -0.513201 255 255 255 255 
0.71777 0.380337 1.18886 0.493673 0.632135 -0.597237 255 255 255 255 
1.09336 0.359933 1.30204 -0.457741 -0.376736 -0.805322 255 255 255 255 
1.102 0.389543 1.32532 -0.994151 0.0450639 0.0981463 255 255 255 255 
1.09128 0.336327 1.31588 -0.866359 0.483248 -0.126071 255 255 255 255 
1.05468 0.341268 1.30888 0.205897 -0.947411 -0.244988 255 255 255 255 
1.01014 0.337938 1.39138 -0.613703 -0.700753 0.36375 255 255 255 255 
0.878722 0.364735 1.26186 0.199018 0.560957 -0.803566 255 255 255 255 
1.00057 0.355321 1.23051 -0.00616519 0.535434 -0.844555 255 255 255 255 
0.807995 0.376245 1.42391 0.59335 -0.112248 -0.79708 255 255 255 255 
-2.73788 0.287666 1.11174 0.478141 0.765851 -0.429946 255 255 255 255 
0.945124 0.353794 1.29737 -0.292452 0.355546 -0.887727 255 255 255 255 
1.10995 0.376464 1.26563 0.720929 -0.461627 -0.516877 255 255 255 255 
-1.23729 -0.122231 1.60819 0.0644762 0.921111 -0.383925 255 255 255 255 
-1.23083 0.376348 1.03515 0.00966126 -0.984243 -0.176558 255 255 255 255 
-1.99337 0.264108 0.981002 0.437306 -0.38277 -0.813788 255 255 255 255 
-3.24392 -0.0415225 1.31063 0.672772 0.372382 -0.639304 255 255 255 255 
-0.644077 -0.0599204 1.55272 -0.12784 -0.693768 -0.708761 255 255 255 255 
-2.41573 -0.0377712 1.18155 -0.134713 0.331289 -0.933863 255 255 255 255 
-1.22568 0.338129 1.38506 -0.0265445 -0.974073 -0.224672 255 255 255 255 
0.795592 0.338456 1.39227 -0.0919828 -0.989672 -0.109949 255 255 255 255 
-0.675459 0.611759 1.88287 -0.197256 -0.968935 -0.149185 255 255 255 255 
1.02246 0.796225 1.63569 -0.655927 0.00829833 -0.754779 255 255 255 255 
1.01778 0.406665 1.52283 0.438241 -0.812853 -0.383687 255 255 255 255 
-1.1316 0.577342 2.11978 0.587364 -0.653335 -0.477657 255 255 255 255 
0.999304 0.391684 1.51997 -0.390646 0.341411 -0.854888 255 255 255 255 
1.01164 0.259947 1.51123 -0.964522 0.263278 -0.0195497 255 255 255 255 
0.819805 0.338615 1.40757 0.0261856 -0.993672 0.109229 255 255 255 255 
1.02134 0.385945 1.52949 0.559256 -0.451242 -0.695424 255 255 255 255 
1.02936 0.385166 1.48363 0.794561 -0.24009 -0.5577 255 255 255 255 
0.837676 1.10882 1.84291 0.227427 -0.949726 0.21517 255 255 255 255 
0.762813 1.09596 1.91147 0.0430133 -0.995887 -0.0797426 255 255 255 255 
0.748207 1.09776 1.89733 0.131944 -0.989849 -0.0528228 255 255 255 255 
1.01663 0.356045 1.51402 -0.415452 -0.205155 -0.886178 255 255 255 255 
1.04453 0.342627 1.32025 -0.18693 -0.801306 -0.5683 255 255 255 255 
0.955429 0.356013 1.28295 -0.668281 -0.560798 0.48878 255 255 255 255 
0.992942 0.366124 1.31909 -0.244932 0.949432 -0.196438 255 255 255 255 
0.946621 0.365303 1.36518 -0.338206 -0.549911 -0.763685 255 255 255 255 
0.944638 0.35987 1.25677 -0.156713 -0.986759 -0.041799 255 255 255 255 
0.841948 0.345207 1.34072 0.0617099 -0.983622 -0.169348 255 255 255 255 
1.03405 0.338598 1.33658 -0.00261845 0.789528 -0.613709 255 255 255 255 
-1.75726 0.175827 1.04097 0.202882 0.537362 -0.818585 255 255 255 255 
-1.85422 0.185691 0.999548 0.288996 0.937667 -0.193033 255 255 255 255 
-1.75068 0.214851 1.11308 0.60512 0.483831 -0.632248 255 255 255 255 
-2.61352 0.213834 0.84949 0.443312 -0.896218 0.0163499 255 255 255 255 
-1.67954 0.215294 2.019 0.123269 0.721037 -0.681844 255 255 255 255 
0.681471 1.06714 1.93983 0.103176 -0.994479 0.0191481 255 255 255 255 
0.703122 1.09474 1.86183 0.0769702 -0.995839 -0.0487924 255 255 255 255 
0.800525 1.07549 1.85065 0.092748 -0.990317 0.103291 255 255 255 255 
0.832458 1.10262 1.80533 0.217235 -0.971193 -0.0979457 255 255 255 255 
0.713343 0.394629 1.19847 0.309753 -0.918905 -0.244268 255 255 255 255 
0.847974 0.353493 1.2543 -0.0895303 -0.944482 0.31613 255 255 255 255 
1.07217 0.347256 1.31613 0.50431 0.259884 -0.823488 255 255 255 255 
1.10338 0.382503 1.34548 -0.210838 0.794502 -0.569485 255 255 255 255 
1.00287 0.34521 1.26715 -0.358032 0.646409 -0.673772 255 255 255 255 
1.03262 0.345562 1.32019 -0.583601 0.806359 -0.0958922 255 255 255 255 
-0.9411 0.510405 1.74348 -0.417588 0.15672 -0.895019 255 255 255 255 
0.762286 1.08706 1.95458 0.0167302 -0.999168 -0.0372009 255 255 255 255 
1.04391 0.357542 1.35624 -0.481425 0.874649 0.0567414 255 255 255 255 
0.939838 0.373493 1.26647 -0.803508 0.570054 0.171504 255 255 255 255 
0.896558 0.36058 1.24716 -0.400933 -0.850593 0.340212 255 255 255 255 
0.922379 0.357225 1.26192 0.32065 -0.872306 -0.369142 255 255 255 255 
-0.630051 0.456111 1.69113 0.128943 0.727823 -0.673533 255 255 255 255 
0.973893 0.314324 1.54292 -0.866181 0.307409 -0.393992 255 255 255 255 
0.928375 1.01717 1.67584 -0.788784 0.199765 -0.581303 255 255 255 255 
0.846494 0.345482 1.3786 0.0802631 -0.996648 -0.0158103 255 255 255 255 
-2.6417 0.247382 1.3675 0.0892163 -0.378944 -0.921109 255 255 255 255 
-2.67215 0.083219 1.49334 0.097538 -0.650442 -0.753267 255 255 255 255 
-1.40609 0.31086 1.25388 -0.134043 -0.941722 -0.308531 255 255 255 255 
0.85411 1.09703 1.83528 -0.186452 0.848521 -0.495225 255 255 255 255 
1.07258 0.39735 1.39347 -0.599671 -0.305507 -0.739635 255 255 255 255 
0.854778 1.08562 1.94215 0.0287335 -0.967685 -0.250519 255 255 255 255 
0.934876 1.09531 1.90643 -0.231086 -0.815645 -0.530398 255 255 255 255 
0.776649 1.10124 2.01799 0.605074 -0.796085 0.0115676 255 255 255 255 
0.767635 1.08969 2.01856 0.222811 -0.96707 0.123008 255 255 255 255 
0.868814 0.341814 1.35249 0.668419 0.305643 -0.678084 255 255 255 255 
1.15016 0.398341 1.73419 -0.788527 -0.61133 -0.0670891 255 255 255 255 
1.04059 0.336124 1.3321 -0.497361 -0.718266 -0.486545 255 255 255 255 
1.0981 0.355053 1.30539 -0.406384 -0.348411 -0.844666 255 255 255 255 
1.03604 0.345721 1.34967 0.619121 0.494775 -0.609825 255 255 255 255 
0.756296 1.09213 2.11215 -0.914017 -0.245726 0.322788 255 255 255 255 
1.06877 0.360602 1.40608 0.00999187 0.931879 -0.362631 255 255 255 255 
0.790999 1.06615 2.06223 0.0989274 -0.993775 -0.0512275 255 255 255 255 
0.793122 1.09504 1.77617 0.0103325 0.0508912 -0.998651 255 255 255 255 
0.921152 0.378099 1.28346 0.687742 -0.513532 -0.513123 255 255 255 255 
1.01977 0.346797 1.4054 0.68897 0.119961 -0.714794 255 255 255 255 
1.05619 0.400692 1.45366 -0.367872 -0.929768 0.0142189 255 255 255 255 
0.910936 1.05715 1.94642 -0.388655 -0.921301 0.012319 255 255 255 255 
-2.81494 0.220389 1.6329 -0.240053 0.0466337 -0.969639 255 255 255 255 
-2.47773 0.0988374 1.56801 0.522786 -0.789368 -0.321859 255 255 255 255 
-2.03737 0.0765689 1.08325 0.451699 0.137694 -0.881481 255 255 255 255 
-2.86679 0.452048 1.70044 0.248084 0.936658 -0.247239 255 255 255 255 
0.430511 0.540711 1.94769 0.749542 -0.262738 -0.607582 255 255 255 255 
-0.537992 1.10767 2.57031 0.217628 -0.916394 -0.335947 255 255 255 255 
0.413604 0.394353 1.93991 -0.328162 -0.684547 -0.650926 255 255 255 255 
0.253396 0.394487 2.00516 -0.276825 -0.938256 -0.207471 255 255 255 255 
-3.15071 0.200444 1.54902 0.876814 -0.400397 -0.266232 255 255 255 255 
1.00773 0.343 1.51513 -0.307495 -0.268569 -0.912862 255 255 255 255 
0.86949 0.342583 1.38686 -0.341834 0.920686 -0.188381 255 255 255 255 
0.859143 0.341318 1.39074 0.0364601 0.850737 -0.524326 255 255 255 255 
0.942048 0.367934 1.31905 -0.393933 0.617685 -0.680648 255 255 255 255 
1.05941 0.35175 1.42925 -0.319669 -0.0404245 -0.946667 255 255 255 255 
-2.98906 0.181646 1.42609 0.504944 -0.348385 -0.789721 255 255 255 255 
0.832001 0.342052 1.36939 -0.134471 -0.899791 -0.415082 255 255 255 255 
-0.261317 1.33479 2.47295 -0.274987 -0.635552 -0.721426 255 255 255 255 
0.871872 0.396737 1.41234 -0.193288 -0.971097 -0.140038 255 255 255 255 
-1.92755 0.266969 1.03174 0.925036 0.327976 0.191679 255 255 255 255 
1.02878 0.337302 1.36595 0.114112 0.194882 -0.974166 255 255 255 255 
-1.49843 0.0657353 1.77126 0.643318 0.756914 -0.114989 255 255 255 255 
1.06052 0.351276 1.33036 -0.676009 -0.73494 -0.0536197 255 255 255 255 
0.8653 0.336444 1.45811 -0.578375 -0.530469 -0.619746 255 255 255 255 
-1.64787 0.0486286 1.72255 0.27504 -0.945714 0.173143 255 255 255 255 
1.06379 0.396956 1.4263 -0.638318 -0.769629 0.0149115 255 255 255 255 
1.07957 0.352955 1.35796 -0.87211 0.316316 -0.373321 255 255 255 255 
0.895603 0.352219 1.34037 -0.149256 0.415707 -0.897168 255 255 255 255 
1.00057 0.361835 1.51721 -0.492451 -0.00542655 -0.870324 255 255 255 255 
0.824336 1.07007 1.8256 0.217235 -0.971193 -0.0979457 255 255 255 255 
0.804234 1.11858 2.11204 -0.886128 -0.235081 0.399393 255 255 255 255 
0.960756 1.10691 2.01844 0.0790938 0.843264 -0.531648 255 255 255 255 
1.06344 0.391144 1.42106 -0.747665 -0.653273 0.119297 255 255 255 255 
1.05644 0.352789 1.3022 0.262966 0.341106 -0.902494 255 255 255 255 
1.01275 0.345046 1.33359 -0.692353 -0.662742 0.285341 255 255 255 255 
0.93034 1.11729 1.85864 -0.152194 -0.979086 -0.135008 255 255 255 255 
-1.92722 0.238869 1.17056 0.838281 0.505846 -0.203483 255 255 255 255 
0.266427 1.11934 2.45369 0.0905633 -0.99171 0.0911604 255 255 255 255 
1.08254 0.326635 1.4129 -0.944467 0.304409 -0.123766 255 255 255 255 
1.08052 0.355025 1.3569 -0.333467 -0.206599 -0.919846 255 255 255 255 
1.08484 0.352457 1.3315 -0.967581 -0.00601193 -0.252489 255 255 255 255 
1.03715 0.374026 1.47954 -0.461921 -0.261448 -0.847511 255 255 255 255 
1.08828 0.375924 1.35516 -0.105272 0.239706 -0.965121 255 255 255 255 
-1.5475 0.307012 1.45484 0.175684 -0.955443 0.237201 255 255 255 255 
-0.794906 0.531698 2.1258 0.287399 0.824646 -0.487196 255 255 255 255 
-0.836469 0.848053 2.05591 -0.596088 -0.796506 -0.101279 255 255 255 255 
-0.9342 0.556256 2.0968 0.367406 0.810504 -0.456176 255 255 255 255 
0.371622 0.483521 1.92701 0.9235 -0.112798 -0.36664 255 255 255 255 
-1.47064 0.636395 1.97947 0.493644 0.868059 0.0528111 255 255 255 255 
0.436202 0.519877 2.00321 -0.799315 -0.546899 -0.248991 255 255 255 255 
-0.650824 0.636103 1.99229 -0.202903 -0.978251 0.0430713 255 255 255 255 
0.254687 0.565403 2.00552 -0.0236512 0.382453 -0.923672 255 255 255 255 
0.510316 0.400283 1.75556 -0.340758 -0.878372 -0.335181 255 255 255 255 
0.412479 0.549002 1.94719 0.749542 -0.262739 -0.607581 255 255 255 255 
0.428539 0.534891 2.01515 0.22729 -0.331353 -0.915721 255 255 255 255 
-0.416675 1.05074 2.67175 -0.219387 -0.85948 -0.461696 255 255 255 255 
0.0216818 1.06492 2.44845 0.102613 -0.96218 -0.252349 255 255 255 255 
0.484994 0.402896 1.94689 -0.545302 0.608233 -0.5768 255 255 255 255 
0.946813 0.288432 1.54355 0.0016661 0.7228 -0.691055 255 255 255 255 
-1.55 0.123203 1.16715 0.0633751 0.186515 -0.980406 255 255 255 255 
-1.90398 0.284058 1.0485 0.890159 -0.0475389 -0.453164 255 255 255 255 
-0.461628 1.09065 2.75223 -0.250667 -0.839114 -0.482757 255 255 255 255 
0.964832 0.28849 1.55342 0.389192 -0.461032 -0.797483 255 255 255 255 
1.01663 0.31669 1.5099 -0.653872 0.475842 -0.588239 255 255 255 255 
1.01871 0.391378 1.50733 -0.280315 0.855226 -0.435904 255 255 255 255 
0.865755 0.347918 1.40134 -0.149166 0.93674 -0.316652 255 255 255 255 
-0.268426 0.984501 2.71839 -0.266256 -0.782169 -0.563311 255 255 255 255 
0.0692284 1.06844 2.39389 0.0947484 -0.993921 0.0560717 255 255 255 255 
-1.12483 0.4503 1.87155 -0.327112 0.4563 -0.827519 255 255 255 255 
0.860889 0.37947 1.30856 -0.188819 -0.651121 -0.735112 255 255 255 255 
-1.58605 0.154455 1.68989 0.875252 0.449402 0.178805 255 255 255 255 
0.492919 0.579067 1.86577 -0.488895 -0.846184 -0.212023 255 255 255 255 
0.10934 1.1007 2.55486 0.158054 -0.958706 -0.236435 255 255 255 255 
0.180366 1.06554 2.50003 0.0767828 -0.982298 -0.170867 255 255 255 255 
0.0185356 1.01423 2.58059 -0.164221 -0.67813 -0.716359 255 255 255 255 
1.02773 0.297825 1.50656 0.380748 -0.371845 -0.846618 255 255 255 255 
0.858154 0.344761 1.41441 0.511189 -0.848561 -0.136491 255 255 255 255 
0.814681 0.365584 1.46982 0.00949294 -0.864542 -0.50247 255 255 255 255 
0.213646 1.11454 2.47807 -0.0694612 -0.996275 -0.0510968 255 255 255 255 
-0.153399 1.02809 2.66452 -0.243603 -0.697491 -0.673917 255 255 255 255 
-0.0618542 1.08669 2.4971 0.0640549 -0.970343 -0.233091 255 255 255 255 
0.847466 0.342232 1.36104 0.180628 -0.982577 0.0437683 255 255 255 255 
0.844827 0.361965 1.44354 0.0999775 -0.993394 -0.0563341 255 255 255 255 
0.212289 1.11126 2.36485 0.0658035 -0.984203 0.164358 255 255 255 255 
0.860816 0.344611 1.41258 -0.390799 0.92037 -0.0140049 255 255 255 255 
0.86716 0.354422 1.35035 -0.570898 0.820159 -0.0376023 255 255 255 255 
1.02695 0.351875 1.36639 0.184179 -0.920225 -0.345346 255 255 255 255 
0.860499 0.350738 1.36105 -0.428522 0.777152 -0.460872 255 255 255 255 
1.03133 0.353917 1.41117 -0.319603 0.821405 -0.472385 255 255 255 255 
1.05514 0.373813 1.4501 -0.652618 -0.139183 -0.744794 255 255 255 255 
1.04768 0.341127 1.44052 -0.522336 -0.593185 -0.612614 255 255 255 255 
1.06683 0.381731 1.43495 -0.796463 -0.573802 0.190784 255 255 255 255 
1.01243 0.341867 1.44213 0.104499 -0.987709 0.116238 255 255 255 255 
1.072 0.36069 1.43237 0.112908 -0.46529 -0.877928 255 255 255 255 
1.06926 0.373529 1.4265 -0.666149 0.058731 -0.743503 255 255 255 255 
1.07083 0.361412 1.42033 -0.316337 0.873536 -0.369955 255 255 255 255 
1.0686 0.358173 1.40089 -0.884645 -0.159681 0.438069 255 255 255 255 
1.07026 0.398159 1.39789 -0.564579 -0.244615 -0.788298 255 255 255 255 
1.06827 0.334588 1.43076 -0.692634 -0.580354 0.428308 255 255 255 255 
1.06616 0.371777 1.42515 -0.845677 -0.159157 -0.50941 255 255 255 255 
1.08206 0.380746 1.37319 -0.0823334 0.973567 -0.213046 255 255 255 255 
1.04103 0.346663 1.37167 0.415334 -0.173681 -0.892935 255 255 255 255 
1.05144 0.351672 1.37348 -0.9571 0.0711943 0.280877 255 255 255 255 
1.04575 0.346817 1.35908 -0.916769 -0.364952 0.162308 255 255 255 255 
0.918214 0.385303 1.34137 -0.0299439 -0.985935 -0.164427 255 255 255 255 
1.08433 0.355634 1.34714 0.521205 -0.725911 -0.448774 255 255 255 255 
1.06503 0.335109 1.41655 0.139777 -0.985916 -0.0918315 255 255 255 255 
1.06549 0.339166 1.32331 0.27644 -0.95474 -0.109781 255 255 255 255 
1.0464 0.343532 1.32273 -0.166505 -0.657134 -0.735154 255 255 255 255 
0.9428 0.36305 1.30052 -0.846354 0.0260019 -0.531986 255 255 255 255 
0.962063 0.365155 1.30531 -0.170713 0.757251 -0.630419 255 255 255 255 
0.732028 0.397631 1.4714 -0.214195 0.928164 -0.304354 255 255 255 255 
0.453064 0.443829 1.94032 -0.363918 0.658049 -0.659193 255 255 255 255 
-2.21567 0.361302 1.37001 0.309253 0.95086 0.0150929 255 255 255 255 
-1.31895 0.315427 1.43871 0.212805 -0.953439 0.213701 255 255 255 255 
0.0801586 1.12493 2.47396 0.102613 -0.96218 -0.252349 255 255 255 255 
-1.41525 0.298345 1.35828 0.357296 -0.932174 -0.0582424 255 255 255 255 
0.944157 0.28407 1.55568 0.183753 0.167572 -0.968584 255 255 255 255 
-1.45781 0.0284286 1.13931 0.639363 -0.553365 0.533856 255 255 255 255 
-1.66786 0.0782228 1.15512 0.335239 0.0864751 -0.938156 255 255 255 255 
0.872826 0.384073 1.41831 -0.926785 0.0313542 -0.374282 255 255 255 255 
0.52323 0.395426 1.71129 -0.280417 -0.947708 -0.152369 255 255 255 255 
0.697716 0.389557 1.48221 0.409248 -0.0576774 -0.910598 255 255 255 255 
0.69568 0.38206 1.47832 0.240081 0.525884 -0.81597 255 255 255 255 
0.868175 0.366536 1.44901 0.304857 0.79026 -0.531555 255 255 255 255 
0.98882 0.352966 1.54107 -0.908756 0.161108 0.384975 255 255 255 255 
0.862553 0.380603 1.44406 -0.807448 -0.556717 -0.195176 255 255 255 255 
0.880812 0.377811 1.41161 0.0118608 -0.551111 -0.834347 255 255 255 255 
0.838727 0.344 1.40988 -0.163837 -0.971585 -0.170822 255 255 255 255 
0.883019 0.387 1.40375 -0.546354 -0.639794 -0.540519 255 255 255 255 
-3.12779 0.15651 1.62285 0.543974 -0.4429 0.712693 255 255 255 255 
0.734628 0.387065 1.448 -0.384808 -0.909638 0.156466 255 255 255 255 
-2.90011 0.135757 1.49098 0.258973 0.021777 -0.965639 255 255 255 255 
0.822749 0.347726 1.37559 0.00935616 -0.838246 -0.545211 255 255 255 255 
0.903717 0.386129 1.36781 0.419386 -0.886642 -0.194889 255 255 255 255 
0.857131 0.345743 1.34396 0.0346512 -0.995731 -0.0855532 255 255 255 255 
0.868233 0.347606 1.32016 -0.142987 -0.988078 -0.0570591 255 255 255 255 
0.87422 0.345926 1.31535 -0.0284894 0.920347 -0.390063 255 255 255 255 
0.912543 0.37542 1.34928 -0.556065 0.779002 -0.289738 255 255 255 255 
1.09509 0.342953 1.32147 0.0939782 -0.995376 -0.0198668 255 255 255 255 
1.03438 0.34049 1.50249 -0.730077 -0.0591164 -0.680804 255 255 255 255 
1.02284 0.367656 1.50486 -0.643094 0.25096 -0.723498 255 255 255 255 
1.05917 0.394118 1.43839 -0.948287 -0.164523 -0.271448 255 255 255 255 
1.0677 0.376788 1.40051 -0.251988 -0.184458 -0.949988 255 255 255 255 
1.07497 0.400609 1.38997 -0.882765 -0.469613 -0.0138069 255 255 255 255 
1.07577 0.336242 1.3213 0.637738 0.384045 -0.667682 255 255 255 255 
-0.494636 0.544827 2.08549 0.0666615 -0.99075 0.118197 255 255 255 255 
-1.01403 0.971122 2.30221 -0.714153 -0.0151254 -0.699827 255 255 255 255 
-0.780658 0.664439 2.12891 -0.451346 -0.571748 -0.685121 255 255 255 255 
-2.7829 0.362115 1.48272 0.185579 -0.981607 0.0448038 255 255 255 255 
-1.30905 0.37591 1.35774 -0.101559 -0.99239 -0.0696313 255 255 255 255 
-0.0913107 0.349687 1.62465 0.0653197 0.948207 -0.310864 255 255 255 255 
-0.831583 0.495768 2.05483 0.48215 0.707511 -0.516682 255 255 255 255 
-1.44893 1.06855 2.18321 0.326524 -0.845181 0.423144 255 255 255 255 
-0.868435 0.52764 1.746 -0.244458 0.488538 -0.837598 255 255 255 255 
0.828024 0.358461 1.43998 0.529656 -0.702151 -0.475866 255 255 255 255 
-0.770995 0.554416 2.20359 -0.267007 -0.956237 -0.119656 255 255 255 255 
-0.44473 0.559787 2.02296 0.0366749 -0.309123 -0.950315 255 255 255 255 
-1.25489 0.460614 1.91657 0.0134698 -0.907191 -0.420504 255 255 255 255 
0.802851 0.349477 1.424 -0.199761 0.550424 -0.810635 255 255 255 255 
-2.95803 0.305225 1.6008 -0.423671 0.0205139 -0.905584 255 255 255 255 
0.718233 0.385094 1.40035 -0.472977 -0.88105 0.00657668 255 255 255 255 
-2.56258 0.327298 1.44399 0.077676 0.423417 -0.902599 255 255 255 255 
-1.52192 0.345828 1.2184 0.238737 0.300179 -0.923525 255 255 255 255 
0.255206 1.05896 2.17214 -0.065721 -0.963972 0.257757 255 255 255 255 
1.01416 0.307619 1.46329 0.507377 0.0872543 -0.857295 255 255 255 255 
1.01846 0.287736 1.46171 0.271933 0.12443 -0.954238 255 255 255 255 
0.85202 0.386033 1.44814 -0.72237 -0.452767 -0.522669 255 255 255 255 
0.865529 0.357029 1.41717 -0.653046 0.501721 -0.567281 255 255 255 255 
0.797139 0.399624 1.27467 0.466893 0.633733 -0.61676 255 255 255 255 
0.919347 0.355079 1.25792 -0.00476831 -0.977653 -0.210171 255 255 255 255 
-0.0739321 1.08887 2.49791 0.0640549 -0.970343 -0.233091 255 255 255 255 
0.903298 0.354726 1.24719 -0.301129 -0.90175 0.310111 255 255 255 255 
0.920271 0.351015 1.25029 -0.0506229 -0.994626 0.0903092 255 255 255 255 
-0.861498 0.57191 2.20153 0.560343 0.827834 -0.0265938 255 255 255 255 
-1.41055 0.316817 1.47037 -0.185767 0.132662 -0.973597 255 255 255 255 
-2.1125 0.715181 2.38089 0.175083 0.59761 -0.782437 255 255 255 255 
-0.96097 0.638591 2.21069 0.152624 -0.95009 -0.272092 255 255 255 255 
-0.991809 0.674416 1.85081 -0.259724 0.462768 -0.847578 255 255 255 255 
-0.548039 0.48748 2.02014 -0.0822043 -0.930388 -0.35724 255 255 255 255 
1.01934 0.293203 1.50577 -0.527833 -0.387426 -0.755839 255 255 255 255 
0.413457 0.473845 1.89244 -0.465089 0.0400226 -0.884359 255 255 255 255 
-0.186958 0.45696 1.79009 -0.259511 0.915605 -0.307117 255 255 255 255 
-0.664853 0.683465 1.82925 -0.250032 -0.951826 -0.177516 255 255 255 255 
-0.937973 1.00302 2.282 0.843255 0.499404 -0.198786 255 255 255 255 
0.479754 0.539413 1.94519 -0.507399 -0.706178 -0.493821 255 255 255 255 
-0.0561755 0.535829 1.89184 -0.382475 -0.53174 -0.755623 255 255 255 255 
0.205426 0.99368 2.08973 0.894615 0.172423 -0.41223 255 255 255 255 
0.195927 1.04607 2.1726 -0.0779822 -0.965199 0.24962 255 255 255 255 
0.977398 0.270762 1.55436 -0.781304 0.0260788 -0.623606 255 255 255 255 
0.131419 1.06649 2.18603 0.219545 -0.937873 0.26869 255 255 255 255 
0.149919 1.017 2.14424 -0.0779822 -0.965199 0.24962 255 255 255 255 
0.456145 0.559216 1.93716 -0.507399 -0.706178 -0.493821 255 255 255 255 
0.951948 0.410039 1.58014 -0.906463 -0.420236 -0.0415473 255 255 255 255 
0.973121 0.401558 1.5675 -0.953626 -0.0847614 -0.288812 255 255 255 255 
0.71366 0.388738 1.42228 -0.283721 -0.958903 -0.00278872 255 255 255 255 
1.04166 0.353406 1.31357 -0.295542 0.933945 -0.201003 255 255 255 255 
1.0533 0.351829 1.3601 -0.887564 -0.453393 -0.0816371 255 255 255 255 
0.837501 0.375073 1.28537 -0.936863 0.0704143 0.342534 255 255 255 255 
1.08064 0.350986 1.32648 -0.987007 -0.0146753 0.160008 255 255 255 255 
0.990309 0.273685 1.52935 -0.322976 0.134509 -0.9368 255 255 255 255 
0.922554 0.362208 1.30086 -0.431922 -0.736611 -0.520429 255 255 255 255 
0.844815 0.39725 1.44666 -0.559561 -0.827502 -0.0461823 255 255 255 255 
0.716156 0.389867 1.45164 0.143367 -0.989101 -0.0335446 255 255 255 255 
0.852577 0.387288 1.28595 0.401758 -0.769216 -0.496888 255 255 255 255 
0.912526 0.365351 1.29817 -0.868938 0.413507 0.271952 255 255 255 255 
0.818404 0.342653 1.39708 0.0312742 -0.992746 -0.116088 255 255 255 255 
1.04903 0.337159 1.35219 -0.670573 -0.403895 -0.622255 255 255 255 255 
1.00319 0.338645 1.37944 -0.694242 0.672667 0.256021 255 255 255 255 
1.01246 0.264874 1.50759 -0.964522 0.263278 -0.0195496 255 255 255 255 
0.79659 0.343147 1.38651 -0.314354 -0.941454 -0.121847 255 255 255 255 
0.941386 0.359384 1.30676 -0.828687 0.281869 -0.483557 255 255 255 255 
0.919436 0.35992 1.29125 -0.868938 0.413507 0.271952 255 255 255 255 
1.02515 0.316406 1.50607 0.533291 0.161294 -0.830412 255 255 255 255 
1.03365 0.350087 1.45002 -0.352199 -0.732468 -0.582621 255 255 255 255 
1.07021 0.334215 1.34712 -0.590979 -0.74622 0.306431 255 255 255 255 
0.832476 0.345233 1.3905 -0.0859367 -0.977386 -0.193212 255 255 255 255 
-0.247978 0.725006 2.06919 0.182821 -0.976952 -0.110188 255 255 255 255 
1.08793 0.363702 1.31055 -0.805673 -0.320486 -0.498176 255 255 255 255 
1.0549 0.335773 1.32164 -0.163462 0.121176 -0.979079 255 255 255 255 
1.05337 0.336878 1.39428 -0.31724 0.352666 -0.880333 255 255 255 255 
0.421978 0.57366 1.93375 -0.713113 0.693432 -0.103063 255 255 255 255 
0.861556 0.385342 1.44192 -0.782845 -0.544549 -0.301033 255 255 255 255 
0.802363 0.3436 1.37143 -0.116689 -0.98569 0.121652 255 255 255 255 
1.00723 0.255198 1.48737 -0.205947 0.824383 -0.527236 255 255 255 255 
0.406095 0.414525 1.97777 0.381943 0.288634 -0.877958 255 255 255 255 
1.01106 0.332195 1.5221 -0.118065 -0.0331915 -0.992451 255 255 255 255 
0.461689 0.402548 1.96463 -0.363918 0.658049 -0.659193 255 255 255 255 
1.00557 0.255587 1.49732 -0.813999 0.540707 0.21223 255 255 255 255 
1.08886 0.35451 1.31387 -0.634726 -0.526917 -0.565228 255 255 255 255 
1.04091 0.347573 1.30816 -0.0745069 0.88514 -0.459321 255 255 255 255 
-3.05682 0.245111 1.3444 0.352032 -0.239752 -0.904761 255 255 255 255 
0.857941 0.345191 1.35087 0.186032 -0.981276 0.0498866 255 255 255 255 
0.785133 0.342667 1.40222 -0.185435 -0.972259 0.142571 255 255 255 255 
0.947305 0.390453 1.31308 -0.322539 0.189206 -0.927453 255 255 255 255 
1.02553 0.348363 1.3389 0.533939 0.00675334 -0.845496 255 255 255 255 
1.02078 0.349627 1.36674 0.0419813 -0.995497 0.0849889 255 255 255 255 
1.02594 0.358229 1.47641 0.665688 0.0145529 -0.746089 255 255 255 255 
0.954054 0.371144 1.31011 -0.460019 0.283877 -0.841306 255 255 255 255 
0.860697 0.360971 1.37788 -0.33359 -0.816335 -0.471503 255 255 255 255 
1.05151 0.347374 1.33137 -0.627445 0.777998 -0.0321408 255 255 255 255 
1.08383 0.379266 1.31238 -0.0766635 0.294475 -0.952579 255 255 255 255 
0.881648 0.358 1.33055 0.0383133 0.784539 -0.618895 255 255 255 255 
1.01146 0.353087 1.36639 -0.662713 0.748304 -0.0292017 255 255 255 255 
1.03489 0.302315 1.48542 -0.968265 -0.0860277 -0.234652 255 255 255 255 
0.840318 0.339631 1.41517 -0.00204834 -0.865886 -0.500238 255 255 255 255 
1.00818 0.241749 1.47493 -0.146251 -0.96144 0.232904 255 255 255 255 
1.06954 0.356938 1.38527 -0.81703 -0.102189 0.567467 255 255 255 255 
1.06182 0.376918 1.43879 -0.937888 -0.314913 -0.145591 255 255 255 255 
0.687896 0.410426 1.41394 -0.172972 -0.984753 -0.0184782 255 255 255 255 
0.91934 0.303719 1.53315 -0.30995 -0.894901 0.321066 255 255 255 255 
0.822757 0.363579 1.36214 -0.317223 -0.652242 -0.688441 255 255 255 255 
0.853107 0.382864 1.3661 0.594389 0.551239 -0.585523 255 255 255 255 
0.987191 0.33441 1.53214 -0.685891 0.49569 -0.532771 255 255 255 255 
0.826438 0.342146 1.33038 -0.111399 -0.691396 -0.713836 255 255 255 255 
-2.4545 0.370689 2.23006 0.888907 0.0772227 0.451532 255 255 255 255 
-2.69248 0.227554 1.4132 0.410074 0.442913 -0.797287 255 255 255 255 
-0.0577872 0.446794 1.9571 -0.320253 -0.214343 -0.922765 255 255 255 255 
-2.02834 0.257664 1.66163 -0.0592219 -0.770682 -0.634462 255 255 255 255 
1.00942 0.26996 1.51105 -0.197344 0.117976 -0.97321 255 255 255 255 
-1.09245 0.842274 2 0.570699 -0.763848 -0.301396 255 255 255 255 
-2.42637 0.643626 2.32637 -0.0700656 0.146558 -0.986718 255 255 255 255 
-1.90177 0.736695 2.41799 -0.227868 0.859455 -0.457618 255 255 255 255 
-0.103786 0.399339 1.66964 0.0812737 0.933665 -0.348803 255 255 255 255 
0.99508 0.359742 1.33712 -0.295642 -0.851836 -0.432402 255 255 255 255 
-0.660627 0.493925 2.00406 -0.130221 -0.462732 -0.876882 255 255 255 255 
-1.70846 0.720988 2.00069 -0.0344313 0.747979 -0.662828 255 255 255 255 
-0.619425 0.456218 1.76334 0.340311 0.816633 -0.466154 255 255 255 255 
1.0402 0.27692 1.4841 -0.889915 0.117559 0.440716 255 255 255 255 
0.835552 0.354608 1.2087 -0.670136 -0.57077 0.474488 255 255 255 255 
-1.9622 0.32512 1.60771 -0.00419552 -0.856289 -0.51648 255 255 255 255 
0.828003 0.359462 1.43695 0.529656 -0.702151 -0.475866 255 255 255 255 
-1.37151 0.368207 1.23596 -0.0612198 -0.991349 0.116097 255 255 255 255 
1.02011 0.387451 1.46328 -0.950884 -0.0170452 -0.309079 255 255 255 255 
0.986377 0.288388 1.52351 -0.740871 0.144193 -0.655986 255 255 255 255 
-2.03354 0.233838 2.03154 0.0628454 0.450086 -0.890771 255 255 255 255 
1.00427 0.251298 1.49469 -0.596372 0.764627 -0.244308 255 255 255 255 
1.00511 0.305919 1.51723 -0.46784 -0.0245912 -0.883471 255 255 255 255 
0.947044 0.282827 1.55575 0.183753 0.167572 -0.968584 255 255 255 255 
0.971242 0.363321 1.55458 -0.40742 -0.252234 -0.877717 255 255 255 255 
0.990666 0.250612 1.48879 -0.673637 0.712826 -0.195172 255 255 255 255 
0.967458 0.384502 1.55537 -0.934837 0.0131102 -0.354834 255 255 255 255 
1.03086 0.332456 1.28629 -0.951751 -0.142892 0.271572 255 255 255 255 
1.06668 0.338486 1.39685 -0.521092 0.74037 -0.424635 255 255 255 255 
1.07555 0.338858 1.31253 0.420712 0.319709 -0.848992 255 255 255 255 
1.09065 0.333628 1.30315 0.207155 0.304474 -0.929722 255 255 255 255 
1.07316 0.341137 1.35344 -0.796092 0.545287 -0.262488 255 255 255 255 
0.848857 0.394544 1.45182 -0.751746 -0.59543 -0.283444 255 255 255 255 
1.03244 0.336138 1.30798 -0.865936 0.433954 -0.248675 255 255 255 255 
1.05255 0.337786 1.32072 -0.337199 -0.408053 -0.848405 255 255 255 255 
1.0647 0.338597 1.33689 -0.868203 -0.465782 0.171089 255 255 255 255 
1.0001 0.248108 1.46641 -0.234393 -0.668823 -0.705504 255 255 255 255 
0.935431 0.355372 1.26783 -0.0934427 0.552444 -0.828296 255 255 255 255 
0.948449 0.38651 1.30856 -0.946715 0.0398613 -0.319595 255 255 255 255 
0.92586 0.372497 1.31918 -0.760661 -0.647321 -0.0486927 255 255 255 255 
0.956455 0.356476 1.28616 -0.956359 -0.206323 0.206901 255 255 255 255 
1.06318 0.337391 1.3153 -0.489295 -0.857272 -0.160236 255 255 255 255 
0.940131 0.367256 1.30974 -0.69262 0.710376 -0.125075 255 255 255 255 
0.965764 0.349369 1.27127 0.083617 -0.907973 -0.410602 255 255 255 255 
0.843892 0.391006 1.45937 -0.751746 -0.59543 -0.283444 255 255 255 255 
0.94987 0.351034 1.26136 -0.215825 -0.723023 -0.656245 255 255 255 255 
0.954568 0.348782 1.27279 -0.345773 0.924764 -0.15891 255 255 255 255 
0.957078 0.354668 1.29468 -0.553599 0.517811 -0.652227 255 255 255 255 
0.962877 0.351546 1.25861 0.497897 -0.798205 -0.339068 255 255 255 255 
1.02573 0.365612 1.4768 0.680076 0.0383668 -0.732137 255 255 255 255 
-2.38504 0.35886 1.44671 -0.0771162 0.928192 -0.364023 255 255 255 255 
-1.90837 0.0602531 1.70066 0.590338 0.517978 0.619031 255 255 255 255 
-1.91969 0.310177 1.41898 0.21547 -0.948506 0.232182 255 255 255 255 
-0.777146 0.364507 1.22574 -0.0886771 -0.996039 -0.00653055 255 255 255 255 
-2.17503 0.341445 1.19266 0.572217 -0.711388 0.408039 255 255 255 255 
-2.08733 0.331659 1.43725 0.299633 0.953524 -0.0318021 255 255 255 255 
-2.47858 0.341419 0.891536 0.208022 -0.87371 0.439725 255 255 255 255 
-1.90939 0.295959 1.59081 0.260996 -0.962911 -0.0684416 255 255 255 255 
-1.02639 0.382098 1.16003 0.00645843 -0.970724 0.24011 255 255 255 255 
-1.4303 0.524827 1.83522 0.248419 0.941961 -0.225827 255 255 255 255 
-1.36038 0.361221 1.01481 -0.0231542 0.915384 -0.401916 255 255 255 255 
-2.31703 0.354427 0.903268 0.0703659 -0.90999 -0.408617 255 255 255 255 
0.844889 0.380992 1.28939 -0.797984 0.586412 -0.139079 255 255 255 255 
0.862635 0.367821 1.27627 -0.567129 -0.823581 0.00891438 255 255 255 255 
0.846493 0.363429 1.24015 -0.569627 -0.791965 -0.219808 255 255 255 255 
0.8451 0.371505 1.2747 -0.222789 0.865444 -0.448744 255 255 255 255 
0.846236 0.39671 1.27782 0.504304 -0.800991 -0.322632 255 255 255 255 
0.886396 0.358805 1.24281 -0.303568 -0.924323 0.231242 255 255 255 255 
0.869079 0.351135 1.22442 -0.012857 -0.958867 0.283563 255 255 255 255 
0.926344 0.349739 1.26983 -0.435445 -0.885083 0.164366 255 255 255 255 
0.882065 0.354316 1.23366 0.206127 -0.977969 0.0329903 255 255 255 255 
0.920783 0.362522 1.28942 -0.919915 0.344902 0.186544 255 255 255 255 
0.973887 0.352688 1.27668 0.582634 -0.754833 -0.301272 255 255 255 255 
0.935969 0.351383 1.26065 -0.675966 -0.138274 -0.723844 255 255 255 255 
0.917442 0.361114 1.28372 0.454304 -0.619979 -0.639714 255 255 255 255 
0.927585 0.363377 1.2908 -0.299094 -0.722762 -0.623023 255 255 255 255 
1.04955 0.354411 1.45356 0.275797 0.574564 -0.770592 255 255 255 255 
-1.98362 0.352456 1.10523 0.268089 0.963306 -0.013044 255 255 255 255 
-2.46031 0.343119 0.83061 0.219584 -0.975574 0.00612653 255 255 255 255 
1.01286 0.251011 1.51541 0.0288459 -0.330343 -0.94342 255 255 255 255 
-0.596689 0.215914 1.03231 0.0937705 0.544336 -0.83361 255 255 255 255 
-0.606823 0.231556 1.02458 -0.102417 0.915988 -0.387914 255 255 255 255 
-0.990383 0.177414 1.03524 0.315905 0.939535 -0.132208 255 255 255 255 
-0.750192 0.371573 1.034 -0.38369 0.0517138 -0.922013 255 255 255 255 
-0.990103 0.361557 1.02183 0.605029 -0.776679 0.175241 255 255 255 255 
-1.05442 0.35 1.16975 0.129479 -0.990056 -0.0549985 255 255 255 255 
-0.627713 0.252401 1.06236 -0.0570096 0.258661 -0.964284 255 255 255 255 
-0.119916 0.383257 0.984952 -0.107565 0.767585 -0.631857 255 255 255 255 
-0.716155 0.364041 0.883809 0.49381 0.866281 -0.0755539 255 255 255 255 
-1.90392 0.371182 0.965273 0.861914 -0.38162 -0.333873 255 255 255 255 
-0.838308 0.290801 0.857746 -0.15514 0.728764 -0.666959 255 255 255 255 
-2.87965 0.357466 1.36185 0.116304 -0.783121 -0.610897 255 255 255 255 
-0.69807 0.148798 0.97722 0.515481 0.310181 -0.798791 255 255 255 255 
-2.11581 0.326522 1.01491 0.222311 -0.909981 0.350018 255 255 255 255 
0.705349 0.385769 1.459 -0.135504 -0.88579 -0.443863 255 255 255 255 
0.688599 0.386603 1.43621 -0.0182602 -0.944014 -0.329399 255 255 255 255 
0.845735 0.358106 1.44643 -0.0263777 -0.911692 -0.410027 255 255 255 255 
0.839068 0.36739 1.27788 -0.0388769 -0.979299 0.198649 255 255 255 255 
0.82992 0.366891 1.25137 -0.311652 -0.898164 0.31012 255 255 255 255 
0.783255 0.3432 1.36856 -0.197497 -0.980281 -0.00665375 255 255 255 255 
0.839731 0.365131 1.26068 -0.229599 -0.887089 0.400447 255 255 255 255 
0.797988 0.363666 1.22105 0.401139 0.710383 -0.578311 255 255 255 255 
0.797933 0.368503 1.2336 -0.767569 -0.56284 0.306676 255 255 255 255 
0.829543 0.343726 1.29598 0.679857 -0.461921 -0.569582 255 255 255 255 
0.796626 0.357799 1.21289 -0.510599 -0.701685 0.496917 255 255 255 255 
0.843435 0.365135 1.4418 -0.479124 0.876534 -0.0461408 255 255 255 255 
0.770467 0.34692 1.39845 -0.334044 -0.932743 -0.135664 255 255 255 255 
-0.718526 0.384865 1.02374 -0.380603 -0.0607511 -0.922741 255 255 255 255 
0.777634 0.368506 1.21991 0.193593 0.51381 -0.835776 255 255 255 255 
-0.703448 0.27607 0.998322 0.653477 0.468187 -0.594785 255 255 255 255 
-0.721363 0.284893 1.03519 -0.255656 0.634908 -0.729062 255 255 255 255 
-2.95785 0.38748 1.63134 -0.0998833 0.762783 -0.638894 255 255 255 255 
-1.02685 0.20476 1.00599 -0.00669695 0.504515 -0.863377 255 255 255 255 
-0.730056 0.305367 1.01735 -0.23828 0.48928 -0.838945 255 255 255 255 
-1.02315 0.271764 0.854603 -0.144226 -0.812363 -0.565035 255 255 255 255 
-1.7459 0.330475 1.29825 0.00341138 -0.981635 0.19074 255 255 255 255 
-0.700308 0.349672 1.09508 -0.302 -0.0869141 -0.949338 255 255 255 255 
-1.04141 0.217722 0.996611 0.423973 -0.313163 -0.849809 255 255 255 255 
-0.679572 0.379979 0.992704 0.0276258 0.0840397 -0.996079 255 255 255 255 
-3.0937 0.168441 0.753261 0.95643 -0.285056 -0.0631228 255 255 255 255 
-3.01869 0.200589 1.59412 -0.253566 0.723696 -0.641848 255 255 255 255 
0.817953 0.36748 1.25048 0.533219 0.473675 -0.700935 255 255 255 255 
0.785119 0.361659 1.20721 -0.171038 -0.964676 0.200366 255 255 255 255 
0.834706 0.370086 1.26942 0.227942 0.845183 -0.483434 255 255 255 255 
0.841191 0.341157 1.39662 -0.0176158 -0.981068 0.192863 255 255 255 255 
0.830254 0.339632 1.29221 0.679857 -0.461921 -0.569582 255 255 255 255 
0.700877 0.398635 1.483 -0.379809 0.901979 -0.205373 255 255 255 255 
0.73532 0.390049 1.47028 -0.607939 -0.647124 0.460044 255 255 255 255 
0.964217 0.285835 1.54949 0.195767 -0.0704118 -0.978119 255 255 255 255 
-1.75338 0.297085 0.453716 0.573995 0.654185 0.492517 255 255 255 255 
-1.08642 0.35708 0.641583 0.143625 -0.117878 -0.982587 255 255 255 255 
-0.781761 0.191847 0.941368 0.179993 -0.884859 -0.429682 255 255 255 255 
-0.846729 0.297684 0.937483 0.0881574 -0.881685 -0.46353 255 255 255 255 
-1.5041 0.27064 0.563426 0.140163 0.169152 -0.975573 255 255 255 255 
-0.518079 0.358699 0.728332 0.308651 -0.949009 0.0641626 255 255 255 255 
-1.5039 0.030742 0.494344 -0.207738 0.520355 -0.828297 255 255 255 255 
-0.552039 0.367753 0.701591 0.0905302 -0.991864 0.089497 255 255 255 255 
-0.662543 0.259791 0.631837 0.482669 0.838923 -0.251475 255 255 255 255 
0.0433638 0.387768 0.928742 -0.285511 -0.958363 0.00481904 255 255 255 255 
-0.725651 0.378229 0.810947 0.63316 0.769078 -0.0873324 255 255 255 255 
-0.646213 0.322454 0.755455 0.419345 0.64944 -0.634333 255 255 255 255 
-1.42404 0.353489 0.610274 -0.131946 -0.968607 0.21069 255 255 255 255 
-0.0628249 0.369406 0.932169 0.866402 0.471798 -0.163566 255 255 255 255 
-0.949736 0.317708 0.653947 0.829943 0.26295 -0.491988 255 255 255 255 
-1.48229 0.0249457 0.500047 0.407905 -0.553137 0.726397 255 255 255 255 
-1.00494 0.17904 0.651694 0.547837 -0.525777 -0.650718 255 255 255 255 
-0.677067 0.345141 0.905508 0.161374 -0.750898 -0.640399 255 255 255 255 
-0.96472 0.279549 0.599742 0.938812 0.32692 -0.108423 255 255 255 255 
-1.48624 0.263756 0.611795 0.173736 0.3268 -0.928987 255 255 255 255 
-1.66033 0.275168 0.528176 0.531997 0.468988 -0.705003 255 255 255 255 
-0.78384 0.371117 0.550809 0.463273 0.883912 -0.0638579 255 255 255 255 
-0.156059 0.384465 0.834479 0.0365786 -0.633135 -0.773176 255 255 255 255 
1.0363 0.331779 1.28532 -0.42472 -0.85309 0.303069 255 255 255 255 
1.09139 0.329641 1.30126 -0.3396 0.875423 -0.343957 255 255 255 255 
1.03959 0.337373 1.29569 -0.448731 -0.873897 0.186933 255 255 255 255 
0.808347 0.357478 1.22274 0.806121 -0.357847 -0.471291 255 255 255 255 
1.03869 0.338784 1.22935 -0.711866 0.634142 -0.301846 255 255 255 255 
0.788763 0.345497 1.38012 -0.197497 -0.980281 -0.00665377 255 255 255 255 
1.06106 0.340444 1.30923 -0.306955 -0.951719 -0.00321829 255 255 255 255 
1.00803 0.336103 1.37994 0.068292 -0.987663 -0.140918 255 255 255 255 
0.796446 0.377061 1.23819 -0.683173 -0.498819 0.533343 255 255 255 255 
0.828755 0.357274 1.20175 0.434102 0.589247 -0.681427 255 255 255 255 
0.863412 0.371265 1.27641 -0.197644 0.0260739 -0.979927 255 255 255 255 
0.763052 0.373745 1.21209 0.347051 0.763537 -0.544579 255 255 255 255 
0.817379 0.343449 1.40047 0.0910564 -0.995838 0.00380369 255 255 255 255 
0.799032 0.358371 1.19412 0.138072 -0.987075 -0.0813586 255 255 255 255 
1.10539 0.348541 1.25125 -0.954385 -0.298155 -0.015913 255 255 255 255 
-0.734968 0.343741 1.01317 -0.276628 0.196933 -0.940582 255 255 255 255 
0.827928 0.339099 1.30046 -0.231111 -0.953639 0.192772 255 255 255 255 
