ply
format ascii 1.0
comment VCGLIB generated
element vertex 652
property float x
property float y
property float z
property float nx
property float ny
property float nz
property uchar red
property uchar green
property uchar blue
property uchar alpha
element face 0
property list uchar int vertex_indices
end_header
0.900724 0.0446993 0.675896 -0.896185 0.359544 -0.259964 255 255 255 255 
0.873148 0.046763 0.860909 0.747863 0.400789 -0.529216 255 255 255 255 
0.862971 0.0412248 0.843985 0.565927 0.727097 -0.38866 255 255 255 255 
1.19114 0.0299298 0.864532 0.342033 0.299803 -0.890579 255 255 255 255 
0.0908582 -0.0452281 2.30917 -0.0635092 0.339989 -0.938283 255 255 255 255 
1.06508 0.0578598 0.727182 0.389229 0.921087 -0.00993981 255 255 255 255 
-0.0468813 0.0199967 2.88402 -0.0650902 0.979767 -0.189264 255 255 255 255 
1.25675 0.0234438 0.752332 -0.777408 0.120353 0.617375 255 255 255 255 
1.14113 0.00762853 0.841625 -0.509797 -0.716318 -0.47644 255 255 255 255 
1.0481 0.0176166 0.888116 0.0717556 0.98942 -0.126096 255 255 255 255 
1.11646 0.00991306 0.860033 -0.00328383 0.997197 -0.074747 255 255 255 255 
1.25742 -0.000565708 0.844778 0.467764 0.70175 -0.537349 255 255 255 255 
1.1582 0.00343537 0.758362 -0.596164 0.802703 -0.0160031 255 255 255 255 
1.06502 0.0128099 0.885942 -0.0391691 0.98714 0.154983 255 255 255 255 
1.25102 -0.00463405 0.822369 0.720157 0.679782 -0.138819 255 255 255 255 
1.0853 0.0186421 0.891233 -0.0302444 0.894202 -0.44664 255 255 255 255 
1.25284 0.0447389 1.00888 0.639033 0.678716 -0.361914 255 255 255 255 
0.173522 -0.0448599 2.23709 0.124855 0.938147 -0.322942 255 255 255 255 
1.14845 0.0444074 0.723122 0.266312 0.826448 -0.496047 255 255 255 255 
1.28979 0.0392619 0.780037 -0.800017 -0.00335306 0.599967 255 255 255 255 
-0.0483646 -0.0157621 2.44659 -0.628859 -0.060221 -0.775183 255 255 255 255 
0.227593 -0.0314408 2.23081 -0.384149 -0.24662 -0.889724 255 255 255 255 
1.1094 0.00147641 0.795509 -0.243485 0.926579 -0.286648 255 255 255 255 
0.249771 0.0281999 2.19439 0.570031 -0.715412 -0.404041 255 255 255 255 
1.24698 0.0432288 0.999953 0.35372 0.851872 -0.38626 255 255 255 255 
1.2119 -0.00746861 0.74434 0.251645 0.96357 -0.0905909 255 255 255 255 
1.16577 0.00635988 1.05321 0.069084 0.11418 -0.991055 255 255 255 255 
0.0572506 0.0290906 2.75621 0.14753 -0.956286 -0.252493 255 255 255 255 
1.10902 0.0167615 0.838299 0.416372 0.887841 -0.195889 255 255 255 255 
1.1651 0.0139235 0.844023 -0.645563 0.525911 0.553774 255 255 255 255 
1.29437 -0.0123538 0.802346 -0.0271994 0.99942 0.0204703 255 255 255 255 
0.219203 0.036941 2.33024 0.793475 0.455525 -0.403602 255 255 255 255 
0.221453 0.0410725 2.15599 -0.19179 0.948374 0.252592 255 255 255 255 
1.25748 0.0460553 1.02174 -0.956804 -0.0726539 0.28151 255 255 255 255 
1.20464 -0.00251043 0.780809 0.56887 0.746674 -0.344769 255 255 255 255 
1.09705 0.016934 0.824388 0.0245757 0.99803 -0.0577226 255 255 255 255 
1.17342 0.0282202 0.693869 -0.0979892 0.383076 -0.918505 255 255 255 255 
0.0333673 -0.0134056 2.36385 0.721395 0.494974 -0.484345 255 255 255 255 
-0.0415965 0.0139854 2.77513 -0.244555 0.969055 0.0335374 255 255 255 255 
0.0286889 -0.00621152 3.42006 -0.140806 0.985499 0.0946893 255 255 255 255 
1.18592 -0.00586355 1.02619 -0.153327 0.969282 0.192313 255 255 255 255 
1.21833 0.0394787 1.16317 -0.0798292 0.967995 -0.237937 255 255 255 255 
1.30511 0.0341264 0.790272 0.621769 0.162639 -0.766128 255 255 255 255 
1.21636 0.00534451 0.794847 0.157803 -0.735847 -0.658504 255 255 255 255 
0.973629 0.0409086 1.0265 -0.486981 0.863475 -0.131377 255 255 255 255 
1.23208 0.0125111 0.731396 -0.903922 0.372264 0.210581 255 255 255 255 
1.1698 0.0427645 0.90872 -0.264645 0.761396 0.591811 255 255 255 255 
1.29817 0.0199905 0.786217 0.745328 -0.0476549 -0.664993 255 255 255 255 
1.27947 -0.000551492 0.841551 -0.198096 0.845982 -0.495048 255 255 255 255 
1.2322 0.0327566 0.729224 -0.87822 -0.307033 0.366687 255 255 255 255 
1.27631 -0.00104004 0.795223 -0.403079 -0.543411 -0.736363 255 255 255 255 
1.25501 -0.00327358 0.812666 0.276341 0.960505 0.0326578 255 255 255 255 
1.10745 0.0157765 0.805051 -0.181293 -0.824093 -0.536659 255 255 255 255 
1.17098 0.0581005 0.699881 -0.375969 -0.747256 -0.547956 255 255 255 255 
1.31498 0.0493445 0.80744 0.0362872 0.850203 -0.525203 255 255 255 255 
0.224103 -0.00947458 2.93498 0.283953 0.958362 -0.0302198 255 255 255 255 
1.22575 0.0387317 0.96292 -0.813987 0.46118 -0.353184 255 255 255 255 
1.26137 0.049702 0.760981 0.484313 0.715359 -0.503689 255 255 255 255 
0.455789 -0.0285344 2.28939 0.243278 0.954552 -0.172179 255 255 255 255 
1.15755 0.0144852 0.844529 -0.517694 0.533841 0.668585 255 255 255 255 
1.16559 -0.00123167 1.01785 -0.669372 -0.594737 -0.44523 255 255 255 255 
1.02749 0.0201262 0.922255 -0.315935 0.88784 -0.334551 255 255 255 255 
1.25893 0.00383842 0.763927 -0.834653 -0.324659 -0.444917 255 255 255 255 
1.13175 0.00974968 0.798831 0.376752 0.924251 -0.0617965 255 255 255 255 
1.22349 0.00277165 0.974079 -0.213616 0.823284 0.5259 255 255 255 255 
1.21015 -0.00244936 1.00453 -0.0122385 -0.636017 -0.771578 255 255 255 255 
1.19635 0.0386739 0.707545 0.489878 0.213486 -0.845248 255 255 255 255 
1.11932 0.0508153 0.711498 -0.68978 -0.692622 -0.210898 255 255 255 255 
1.26485 -0.00191715 0.800861 -0.48014 0.426375 -0.766596 255 255 255 255 
1.24844 0.00231144 1.02852 -0.704916 0.504418 -0.498653 255 255 255 255 
1.16808 0.0521347 0.686674 0.174353 0.933589 -0.313068 255 255 255 255 
1.21489 -0.000364006 0.950417 -0.225791 0.971086 -0.0775334 255 255 255 255 
1.2167 0.0134919 1.02932 0.851447 0.168009 -0.496801 255 255 255 255 
1.13751 0.00369379 0.982941 -0.48998 0.795772 -0.355901 255 255 255 255 
0.851985 0.00359902 0.822046 -0.52105 0.343407 -0.781395 255 255 255 255 
0.195266 -0.207529 2.11783 0.297832 0.742546 -0.599934 255 255 255 255 
0.92116 0.0474352 2.21398 -0.932735 0.27827 -0.229285 255 255 255 255 
0.917036 0.0507156 2.24529 -0.932735 0.27827 -0.229285 255 255 255 255 
0.209874 -0.112548 2.15513 -0.550893 -0.766751 -0.329559 255 255 255 255 
0.770127 0.0679126 2.55321 -0.399493 0.790772 -0.463773 255 255 255 255 
0.728448 0.311056 3.3002 -0.228707 0.923349 -0.308414 255 255 255 255 
0.896579 0.0371627 0.685691 -0.410051 0.855394 0.31648 255 255 255 255 
0.903875 0.0456253 0.682299 -0.339067 -0.804434 -0.48777 255 255 255 255 
1.17198 0.016402 0.815854 0.737695 0.532002 -0.415667 255 255 255 255 
0.0428698 -0.162938 2.21869 -0.0296094 -0.754343 -0.655813 255 255 255 255 
0.798371 0.107024 2.63483 -0.533005 0.539837 -0.651522 255 255 255 255 
0.908993 0.0636316 2.21329 -0.932735 0.27827 -0.229285 255 255 255 255 
0.772303 0.166688 3.03179 -0.966599 0.254438 0.0307749 255 255 255 255 
0.964088 0.0454342 2.08206 -0.417699 0.904573 0.0852902 255 255 255 255 
0.745959 0.0994625 2.96771 -0.974392 0.223752 0.0222517 255 255 255 255 
1.23566 0.000885785 0.729579 -0.962555 -0.172047 0.209493 255 255 255 255 
1.21806 -0.00511548 0.771357 -0.55613 0.784766 -0.273608 255 255 255 255 
1.13199 0.00907847 0.811526 -0.549839 -0.781604 -0.29457 255 255 255 255 
1.20005 -0.00442132 0.74995 0.115841 0.992096 0.0482338 255 255 255 255 
1.10368 0.00750709 0.807213 0.408788 0.816723 -0.407253 255 255 255 255 
1.22524 -0.0073899 0.753595 0.468672 0.604382 -0.644258 255 255 255 255 
1.23288 -0.00457251 0.793394 -0.254463 0.743568 -0.618349 255 255 255 255 
1.22856 0.000444651 0.768373 0.405165 0.913604 -0.0341842 255 255 255 255 
1.10054 0.00357506 0.953202 -0.89283 -0.362497 -0.2673 255 255 255 255 
0.735129 0.166591 2.91714 0.633729 -0.585195 -0.5059 255 255 255 255 
0.0283085 0.0422053 2.27776 -0.218954 -0.727641 -0.650075 255 255 255 255 
1.12446 0.0204124 0.931519 -0.532056 0.839817 -0.107817 255 255 255 255 
0.996376 0.0448012 1.01522 -0.268122 0.880265 -0.391465 255 255 255 255 
1.18017 0.0273581 0.868887 -0.407231 0.507573 -0.759297 255 255 255 255 
1.09684 0.046975 1.87055 0.416386 0.853628 -0.312957 255 255 255 255 
1.20806 0.0105919 1.06822 0.293939 0.937694 0.185284 255 255 255 255 
0.595275 0.246699 3.42401 0.977884 -0.104404 -0.181224 255 255 255 255 
1.24876 0.00955373 1.00732 -0.821927 0.458688 0.3377 255 255 255 255 
1.33721 0.0340557 0.819848 0.717606 -0.0165187 -0.696254 255 255 255 255 
1.10083 -0.00740618 0.95216 -0.831417 -0.420949 -0.362695 255 255 255 255 
1.23846 -0.00448817 0.795118 0.243217 0.947746 -0.206453 255 255 255 255 
1.06512 0.0243142 0.922508 0.182212 0.881512 -0.435586 255 255 255 255 
1.13102 0.0132621 0.853104 -0.494631 -0.83296 -0.248029 255 255 255 255 
1.31261 0.0426777 0.803959 0.512794 0.323013 -0.795428 255 255 255 255 
1.218 0.00815153 0.724106 0.448488 -0.436258 -0.780088 255 255 255 255 
1.20062 -0.00665915 0.693032 -0.301009 0.604215 -0.737779 255 255 255 255 
1.24801 0.0431001 1.00649 -0.963102 -0.121065 0.24037 255 255 255 255 
1.10971 0.0423188 0.934112 0.159937 -0.601518 -0.782685 255 255 255 255 
1.23019 -0.00289184 0.787216 0.593551 0.753059 -0.283901 255 255 255 255 
1.02351 0.0202466 0.969024 -0.187517 0.951878 -0.242414 255 255 255 255 
1.33664 -0.00445136 0.82645 -0.820037 0.0469251 0.570384 255 255 255 255 
1.16009 0.0243749 0.88423 -0.701763 0.699377 0.135649 255 255 255 255 
-0.137815 -0.16226 2.24631 0.67327 0.729253 -0.122055 255 255 255 255 
0.966359 0.0361382 1.02161 -0.462154 0.885762 -0.0428844 255 255 255 255 
-0.603508 -0.0093205 2.93444 0.314831 0.877712 -0.361253 255 255 255 255 
-0.257838 -0.0756523 2.55326 0.309436 -0.192985 -0.931132 255 255 255 255 
-0.35719 -0.0130272 2.70548 0.326173 0.897299 -0.29743 255 255 255 255 
-0.0455388 0.0714834 1.38277 -0.445105 -0.556185 -0.701812 255 255 255 255 
-0.3504 0.00295338 2.58478 -0.433731 0.651322 -0.622622 255 255 255 255 
-0.609525 -0.154041 2.8338 0.186986 -0.370949 -0.909634 255 255 255 255 
0.956026 0.0237744 1.01278 -0.4347 0.892699 -0.118845 255 255 255 255 
-0.560042 -0.0522374 2.85445 -0.107074 -0.343899 -0.932882 255 255 255 255 
0.0162566 -0.0380053 2.31163 0.483791 0.874819 0.0252778 255 255 255 255 
0.125438 0.010824 2.14228 0.1527 0.98107 0.119101 255 255 255 255 
-0.540958 -0.0366727 2.81819 -0.283139 -0.588792 -0.757071 255 255 255 255 
0.0332942 -0.0764765 2.22077 -0.875552 0.469456 -0.114108 255 255 255 255 
-0.527021 -0.104094 2.86728 -0.812188 -0.161277 -0.560661 255 255 255 255 
1.09586 0.00339651 0.78655 0.364737 0.913611 -0.179672 255 255 255 255 
0.905096 0.0165554 0.689969 0.818801 0.186519 -0.542932 255 255 255 255 
1.02006 0.00424072 0.91771 -0.612675 0.787386 -0.0682075 255 255 255 255 
1.13888 0.00701624 0.728659 -0.178838 0.425249 -0.887232 255 255 255 255 
1.0204 0.0229329 0.934877 -0.459416 -0.627478 -0.628657 255 255 255 255 
1.07914 -0.0108219 0.815116 -0.606293 0.694539 -0.387329 255 255 255 255 
1.03726 0.0140486 0.89671 -0.153506 0.976175 0.153359 255 255 255 255 
1.08468 0.009426 0.814767 -0.496918 0.852755 0.160879 255 255 255 255 
1.08554 0.0050433 0.831751 0.135577 0.990619 -0.0170925 255 255 255 255 
1.09521 0.00110426 0.80329 -0.0496434 0.950105 -0.307956 255 255 255 255 
1.02437 0.0169756 0.908827 0.151565 0.987556 0.0419642 255 255 255 255 
1.11193 -0.000162542 0.766088 0.361843 0.917816 -0.163351 255 255 255 255 
1.09863 0.0510094 0.743284 -0.0145853 0.992741 -0.119384 255 255 255 255 
1.20944 -0.0076175 0.730802 -0.980547 0.194813 0.0239785 255 255 255 255 
1.25048 0.024519 0.74891 0.528217 0.179825 -0.829849 255 255 255 255 
1.24554 -0.00357026 0.786672 -0.0489042 0.996978 0.0603581 255 255 255 255 
1.13135 0.0516092 0.691063 -0.567422 0.218519 -0.793903 255 255 255 255 
0.415526 0.0467044 1.70255 -0.664005 -0.700664 -0.26109 255 255 255 255 
0.955645 0.0223363 1.04194 -0.35797 0.922167 -0.146512 255 255 255 255 
1.15701 0.0266687 0.710518 -0.175562 -0.368959 -0.912714 255 255 255 255 
1.17914 0.192762 0.645857 -0.421846 0.0156599 -0.906532 255 255 255 255 
0.0809749 -0.102484 2.18587 -0.492289 -0.25017 -0.833707 255 255 255 255 
0.752223 0.071818 2.88368 -0.950253 -0.236939 -0.202184 255 255 255 255 
1.12308 0.013296 0.827977 0.293203 0.925867 -0.238332 255 255 255 255 
1.28988 0.00100544 0.779002 0.644001 -0.134316 -0.753141 255 255 255 255 
1.32666 -0.100557 0.8789 -0.012977 -0.494954 -0.868822 255 255 255 255 
1.32454 -0.043895 0.880939 -0.0568737 -0.306154 -0.950282 255 255 255 255 
0.98421 0.0493889 2.09552 -0.539273 0.830284 -0.140761 255 255 255 255 
-0.0806684 0.0184391 3.21046 0.105895 0.98815 0.11111 255 255 255 255 
1.06967 0.0132608 0.873626 -0.00427402 0.999944 -0.00965335 255 255 255 255 
1.09999 0.00731739 0.827607 -0.43836 -0.118027 -0.891016 255 255 255 255 
1.09325 0.040305 1.95206 0.723752 0.68161 -0.107665 255 255 255 255 
0.952855 0.0395217 2.07081 -0.417699 0.904573 0.0852902 255 255 255 255 
0.161445 0.0105706 2.5634 -0.0735017 0.996149 0.0478068 255 255 255 255 
1.11141 0.0126467 0.822881 0.037194 0.638771 -0.768497 255 255 255 255 
1.15889 0.028592 0.881649 -0.539516 0.841965 -0.0040801 255 255 255 255 
1.18739 0.0306243 0.864933 0.601487 0.559554 -0.570187 255 255 255 255 
1.34385 0.0413044 0.823445 -0.81147 -0.254844 0.5259 255 255 255 255 
1.18107 -0.0049825 1.02057 0.146895 0.986565 0.0714922 255 255 255 255 
-0.119187 -0.00492799 3.01756 -0.558555 0.828077 0.0480139 255 255 255 255 
1.15041 0.019305 0.865267 -0.390413 0.226353 -0.89238 255 255 255 255 
-0.551074 -0.0863345 2.86259 0.643081 -0.522149 -0.560184 255 255 255 255 
1.10993 0.0481775 1.93744 -0.770591 -0.609934 -0.184849 255 255 255 255 
1.23612 0.00961891 1.05338 -0.411872 -0.889744 -0.196766 255 255 255 255 
1.37926 0.122994 0.757307 0.602504 0.550288 -0.578076 255 255 255 255 
1.18174 -0.0012944 0.978026 0.0738291 0.950914 0.30052 255 255 255 255 
1.11569 0.0132324 0.800341 -0.330786 0.832723 -0.44402 255 255 255 255 
0.975048 0.022422 0.973048 -0.250068 -0.81012 -0.530257 255 255 255 255 
0.980664 0.0274927 0.96029 0.285112 0.953188 0.100711 255 255 255 255 
1.11823 0.0115674 0.810714 0.246218 0.899828 0.360118 255 255 255 255 
-0.0625762 -0.00743398 3.21718 -0.0640669 -0.958557 -0.277605 255 255 255 255 
0.115928 0.0420194 2.10765 0.0625252 0.995623 -0.069463 255 255 255 255 
1.22181 0.0465117 1.16753 0.131572 -0.719012 -0.68243 255 255 255 255 
1.13502 0.0179099 0.873758 -0.576824 -0.00405965 -0.816858 255 255 255 255 
1.17298 0.0371069 0.89416 -0.309435 0.906673 -0.286696 255 255 255 255 
1.21939 0.0494984 1.15864 -0.695915 0.511531 0.504023 255 255 255 255 
0.989865 0.0210285 0.964639 -0.499582 -0.811897 -0.302063 255 255 255 255 
0.0850637 0.0316088 2.13982 0.396039 -0.844708 -0.360029 255 255 255 255 
1.13073 0.0289838 1.8144 -0.999367 -0.0116094 -0.0336282 255 255 255 255 
-0.612795 -0.107946 2.84013 0.521212 -0.552313 -0.650607 255 255 255 255 
-1.62144 -0.211822 2.92171 0.621849 -0.614666 -0.485274 255 255 255 255 
1.32822 -0.000156105 0.812308 0.52332 -0.234524 -0.819228 255 255 255 255 
-0.0694726 0.0407492 2.38274 0.966615 0.220314 0.130836 255 255 255 255 
1.04563 0.0241303 0.921861 -0.077741 0.932247 -0.353372 255 255 255 255 
1.24557 0.00634581 0.775114 -0.107287 0.887306 0.448528 255 255 255 255 
1.16489 0.0269228 0.876821 -0.0297838 0.936392 -0.349691 255 255 255 255 
1.05912 0.0198409 0.913014 -0.0490719 0.995596 -0.079874 255 255 255 255 
1.3545 0.0276898 0.855368 0.120101 0.258408 -0.958541 255 255 255 255 
1.25923 -0.0109984 0.797639 0.0802258 0.945215 -0.316437 255 255 255 255 
1.15669 -0.00148389 0.949391 0.475221 0.459989 -0.75005 255 255 255 255 
-1.64205 -0.255457 2.88633 0.621805 -0.718553 -0.311511 255 255 255 255 
1.17236 0.00113568 0.963427 0.790934 0.50111 -0.351158 255 255 255 255 
1.17884 -0.00838506 0.981448 0.146894 0.97864 0.143824 255 255 255 255 
1.19072 -0.00106397 0.725525 -0.1579 -0.770069 -0.618111 255 255 255 255 
1.09343 0.0177977 0.891023 0.254506 0.957283 0.137246 255 255 255 255 
1.32724 0.0458456 0.81364 0.544737 0.229197 -0.806679 255 255 255 255 
-0.251296 0.00827336 2.49437 -0.164013 -0.608191 -0.776662 255 255 255 255 
1.171 0.0240743 0.858897 -0.816697 0.0991881 0.568478 255 255 255 255 
1.26095 0.0156054 0.75332 -0.755413 0.0968235 0.648055 255 255 255 255 
1.25007 0.0361257 1.00395 -0.963102 -0.121065 0.24037 255 255 255 255 
1.20493 0.00688449 1.02935 0.801238 0.0450468 -0.596647 255 255 255 255 
1.18145 0.14556 0.64353 -0.566897 0.12674 -0.813981 255 255 255 255 
-0.650158 -0.0974921 2.8421 0.398947 -0.395754 -0.827176 255 255 255 255 
1.33233 0.0254132 0.866862 -0.410156 -0.481373 -0.774631 255 255 255 255 
1.28122 -0.00948733 0.822398 0.29735 0.913771 0.276778 255 255 255 255 
0.11047 0.0192586 1.98925 0.271366 0.588416 -0.761661 255 255 255 255 
0.0313601 -0.00815669 2.09281 -0.600279 0.797605 0.0590912 255 255 255 255 
1.12091 0.051475 0.713985 -0.68978 -0.692622 -0.210898 255 255 255 255 
1.17711 -0.0555895 0.873856 -0.824947 0.257826 0.50298 255 255 255 255 
0.308024 0.0384279 3.30594 -0.213617 0.967497 -0.135343 255 255 255 255 
1.09547 0.117641 1.23721 0.320779 0.901178 -0.291512 255 255 255 255 
0.387026 -0.0186887 1.66882 -0.225108 0.955267 0.191811 255 255 255 255 
1.33867 0.00698391 0.821603 -0.781275 0.0480364 0.622336 255 255 255 255 
0.480843 0.0360355 1.59949 0.0999119 0.949344 -0.297933 255 255 255 255 
-0.0262232 -0.0197717 2.12479 0.173921 -0.158144 -0.971979 255 255 255 255 
1.22706 -0.00636271 0.75649 -0.0569006 0.547874 -0.834623 255 255 255 255 
1.11081 0.0164085 0.895023 -0.108724 0.936268 -0.334038 255 255 255 255 
0.788503 0.0295648 2.42783 -0.879135 0.444808 -0.171078 255 255 255 255 
1.01347 0.0415186 1.97349 -0.101889 -0.892539 -0.439309 255 255 255 255 
1.37089 0.0493786 0.887876 -0.284856 -0.906635 -0.311238 255 255 255 255 
1.32899 -0.0715667 0.958716 0.0969887 0.994598 0.0369912 255 255 255 255 
1.17706 0.0330457 1.12123 0.543663 0.68916 -0.47905 255 255 255 255 
-0.0952252 -0.199739 3.07511 0.483808 0.87159 0.0791236 255 255 255 255 
0.0144463 -0.147291 2.37808 -0.420856 0.579646 -0.697775 255 255 255 255 
1.11111 -0.00471604 0.951248 0.149909 0.175964 -0.972915 255 255 255 255 
1.2749 -0.00329238 0.821971 0.29735 0.913771 0.276778 255 255 255 255 
1.04766 0.0157987 0.849043 -0.696111 -0.0428914 -0.716651 255 255 255 255 
1.33184 0.0149494 0.880502 0.434391 -0.223719 -0.872499 255 255 255 255 
-0.0206282 -0.0288325 2.30971 0.327998 0.697118 -0.637529 255 255 255 255 
0.233938 0.00886008 2.93598 0.283953 0.958362 -0.0302198 255 255 255 255 
1.20865 0.0183291 1.08215 0.293939 0.937694 0.185284 255 255 255 255 
1.33925 0.0303114 0.819164 0.717606 -0.0165187 -0.696254 255 255 255 255 
1.24836 -0.011291 0.775191 -0.161358 0.982737 -0.0905113 255 255 255 255 
1.05554 0.0193025 0.957772 -0.584912 -0.464681 -0.664793 255 255 255 255 
1.22148 -0.00852817 0.744084 0.531506 0.523616 -0.665828 255 255 255 255 
1.05253 0.024712 0.954357 0.208536 0.978009 -0.00344257 255 255 255 255 
1.2138 0.0165022 1.01874 -0.708734 0.704514 0.0368281 255 255 255 255 
1.33035 0.0169698 0.886881 0.666839 0.344508 -0.660787 255 255 255 255 
1.14725 0.013657 0.841841 0.109947 -0.814476 -0.569685 255 255 255 255 
1.27412 -0.00638467 0.828318 0.00452734 0.999844 -0.0170591 255 255 255 255 
-0.563274 -0.0496002 2.72958 0.951351 0.230497 0.204458 255 255 255 255 
-0.229117 -0.15136 2.23722 -0.101711 0.968195 -0.228592 255 255 255 255 
-0.240949 -0.0437135 2.2611 -0.0747153 -0.602433 -0.794665 255 255 255 255 
0.12418 -0.0651307 2.27691 -0.363349 0.275856 -0.889877 255 255 255 255 
-0.02037 -0.00494179 2.08975 -0.388903 -0.569331 -0.724304 255 255 255 255 
-0.235046 0.0156948 2.3452 -0.469675 0.876687 -0.104046 255 255 255 255 
0.909605 -0.0930136 1.00664 -0.965963 0.0240053 -0.257566 255 255 255 255 
-0.189487 -0.0241549 2.26924 -0.697237 0.689773 -0.195126 255 255 255 255 
0.93982 0.0189355 1.02021 -0.0245647 0.999635 -0.0112387 255 255 255 255 
-0.247867 -0.118269 2.29298 0.938681 0.0804881 -0.33526 255 255 255 255 
0.926505 0.0220064 1.02871 -0.0218566 0.997603 -0.0656546 255 255 255 255 
-0.173207 -0.132262 2.21467 0.169618 0.971987 -0.162702 255 255 255 255 
-0.112132 -0.00188389 2.15421 0.339772 -0.380153 -0.860255 255 255 255 255 
0.990818 0.0124783 0.921238 -0.612488 0.545305 -0.572277 255 255 255 255 
1.07773 0.000424802 0.801926 -0.756278 0.619809 0.209474 255 255 255 255 
1.00182 0.019496 0.946898 0.222658 0.958983 0.175427 255 255 255 255 
1.14916 -0.00533629 0.721162 0.553702 0.397307 -0.731821 255 255 255 255 
1.09196 0.0136884 0.847153 0.00117179 0.916963 -0.398971 255 255 255 255 
1.03413 0.0193271 0.880829 -0.417562 0.688371 0.593117 255 255 255 255 
1.07964 0.00586894 0.856099 -0.86837 -0.27854 -0.410304 255 255 255 255 
1.02469 0.0186653 0.869105 -0.748153 0.641521 0.169464 255 255 255 255 
1.01289 0.0133858 0.904843 -0.140022 0.966245 0.216249 255 255 255 255 
0.981603 0.0127783 0.937107 0.0645663 0.921699 -0.382494 255 255 255 255 
1.07881 0.0137259 0.845293 -0.960532 0.133688 -0.243936 255 255 255 255 
1.01439 0.0156871 0.892511 -0.351434 0.872548 0.339343 255 255 255 255 
1.23368 0.00213641 0.736976 -0.934527 -0.310958 0.173103 255 255 255 255 
1.15083 0.0611422 0.943585 -0.815573 0.5022 0.287463 255 255 255 255 
1.34387 0.04554 0.832973 -0.905989 -0.145154 0.397636 255 255 255 255 
0.307088 0.0074355 2.43576 -0.0791209 0.996837 -0.00743836 255 255 255 255 
1.33887 0.0485395 0.865253 -0.36705 0.514605 -0.774891 255 255 255 255 
1.05609 0.00758591 0.833957 -0.252287 0.900633 -0.353851 255 255 255 255 
1.18072 -0.00765559 1.01093 -0.0800657 0.996784 -0.00335823 255 255 255 255 
0.966989 0.0218294 0.993481 -0.388355 0.814118 -0.431733 255 255 255 255 
-0.541947 0.015676 2.74335 -0.640266 0.701498 -0.312985 255 255 255 255 
1.0716 0.0065507 0.824748 -0.0952183 0.871305 -0.481416 255 255 255 255 
0.985927 0.0185941 0.979782 0.286592 0.802719 -0.52298 255 255 255 255 
1.03804 0.00254619 0.85305 -0.584679 0.321031 -0.745043 255 255 255 255 
-0.482513 -0.00828812 2.59806 -0.914327 0.228711 -0.334211 255 255 255 255 
1.0968 -0.0896152 0.762143 -0.5805 -0.227736 -0.781765 255 255 255 255 
0.135105 -0.179046 2.24101 -0.694117 -0.00731594 -0.719825 255 255 255 255 
1.2389 -0.00989804 0.743818 0.613486 0.729996 -0.301232 255 255 255 255 
1.06241 -0.0195854 0.810753 -0.567378 0.790297 0.231328 255 255 255 255 
0.469918 0.0214339 1.60089 0.0999119 0.949344 -0.297933 255 255 255 255 
0.875283 0.0266745 0.812241 -0.58461 -0.522384 -0.620763 255 255 255 255 
1.17774 0.0551988 0.68436 0.174353 0.933589 -0.313068 255 255 255 255 
1.12511 0.0242018 0.872217 -0.468117 0.828016 -0.308634 255 255 255 255 
-0.364971 -0.0130351 3.29933 -0.153114 0.982262 -0.108245 255 255 255 255 
1.2901 -0.00961554 0.800635 0.0200631 0.987889 -0.153862 255 255 255 255 
1.08377 0.0431052 0.727944 0.352621 0.848375 -0.394865 255 255 255 255 
0.43769 0.0260544 1.64084 -0.592043 -0.384345 -0.708353 255 255 255 255 
0.251856 -0.0024682 3.27509 -0.13376 0.984371 -0.114551 255 255 255 255 
1.35101 0.0084357 0.858197 0.192198 -0.0416687 -0.980471 255 255 255 255 
-0.216522 -0.158678 2.3149 -0.23153 0.302548 -0.924586 255 255 255 255 
-0.358152 -0.154007 2.49224 -0.629992 0.171696 -0.757384 255 255 255 255 
1.36236 0.0348527 0.862188 0.595048 0.458091 -0.660357 255 255 255 255 
0.446623 0.0494676 1.5924 0.0661112 0.797909 -0.599141 255 255 255 255 
0.939422 0.0212716 0.995891 -0.00847141 0.991265 -0.131612 255 255 255 255 
1.13326 0.00402468 0.983519 -0.48998 0.795772 -0.355901 255 255 255 255 
0.959833 0.0148206 0.981301 -0.185926 0.797907 -0.57339 255 255 255 255 
1.21938 -0.00972807 0.753435 0.519873 0.206613 -0.828881 255 255 255 255 
-0.0601101 -0.248236 2.39521 -0.260297 0.685435 -0.680018 255 255 255 255 
0.131184 -0.115902 2.38832 -0.32792 0.900652 -0.285123 255 255 255 255 
1.19236 0.00283432 1.00412 0.126772 -0.71343 -0.689164 255 255 255 255 
-0.426344 -0.274435 2.51822 -0.630767 0.775972 0.000783815 255 255 255 255 
1.08714 -0.379413 0.69683 -0.114351 0.975655 -0.187137 255 255 255 255 
1.08948 -0.372769 0.694197 -0.114351 0.975655 -0.187137 255 255 255 255 
1.25015 -0.00839823 0.78925 0.0456884 0.998955 0.00137725 255 255 255 255 
1.22348 -0.000304103 0.780865 0.408528 0.834001 -0.370874 255 255 255 255 
1.16354 0.0453488 0.856455 0.271098 -0.505958 -0.818848 255 255 255 255 
1.34894 -0.0912774 0.887304 -0.00512425 0.967996 -0.250913 255 255 255 255 
-0.118368 -0.0481779 2.20228 -0.631242 0.210247 -0.746545 255 255 255 255 
0.463888 0.0258775 1.56784 0.15906 0.955231 -0.249467 255 255 255 255 
0.442738 0.0262796 1.59558 0.0661113 0.797909 -0.599141 255 255 255 255 
1.17969 0.00292987 1.03677 -0.313698 0.493829 -0.811004 255 255 255 255 
0.916334 0.0228187 1.00123 0.0214485 0.990078 -0.138875 255 255 255 255 
-0.186635 -0.238854 3.29089 -0.963809 -0.0524142 -0.261389 255 255 255 255 
-0.942352 -0.287242 2.40011 -0.729816 0.411187 -0.546163 255 255 255 255 
1.20475 0.00284192 0.971598 0.153267 -0.724014 -0.672542 255 255 255 255 
-0.00892115 0.0403494 1.97332 0.368525 0.844156 -0.389346 255 255 255 255 
0.872625 -0.130533 1.05007 -0.664535 0.0687274 -0.74409 255 255 255 255 
1.23404 -0.00691721 0.986572 -0.204083 0.964179 0.169435 255 255 255 255 
1.07705 0.00319043 0.815751 -0.912223 0.35746 0.200179 255 255 255 255 
0.0877872 -0.194721 2.26696 -0.599263 -0.153544 -0.785689 255 255 255 255 
1.18798 0.00856459 1.08227 -0.00742888 0.990532 -0.137083 255 255 255 255 
0.191919 0.0174041 2.62071 0.444369 0.89583 0.0049864 255 255 255 255 
-0.310585 -0.0126289 3.27943 -0.161039 0.946516 -0.279598 255 255 255 255 
0.0215701 -0.0419066 2.30071 -0.564079 0.0421074 -0.824647 255 255 255 255 
1.23251 0.00611934 0.73792 -0.899058 0.238513 0.36716 255 255 255 255 
-0.709181 -0.0141845 2.92715 -0.531491 0.707937 -0.465127 255 255 255 255 
-0.139462 -0.0414023 2.08986 0.815895 0.146882 -0.559233 255 255 255 255 
0.937232 -0.154634 0.996221 -0.873554 0.0906316 -0.478215 255 255 255 255 
-0.106436 -0.165942 2.3932 -0.989782 0.126778 -0.0652583 255 255 255 255 
1.18122 0.0129562 0.69736 0.38831 -0.160937 -0.907367 255 255 255 255 
1.13231 4.18723e-05 0.729237 0.311424 0.752413 -0.580421 255 255 255 255 
1.18252 -0.00437877 0.694435 -0.825043 0.15504 -0.543384 255 255 255 255 
0.994538 0.0113532 0.906917 -0.419681 0.90218 -0.099692 255 255 255 255 
1.16725 -0.0126365 0.743112 0.417055 0.80606 -0.419918 255 255 255 255 
1.00491 0.00739247 0.893444 -0.452796 0.845698 -0.282437 255 255 255 255 
1.07125 0.0179231 0.891632 -0.484575 0.793704 -0.367723 255 255 255 255 
1.09961 0.0109624 0.820308 -0.240596 0.621446 -0.7456 255 255 255 255 
0.908469 0.0465995 0.683524 -0.339067 -0.804434 -0.48777 255 255 255 255 
1.08866 -0.00672716 0.770843 -0.1731 0.783173 -0.597224 255 255 255 255 
0.589324 -0.0200571 1.42389 -0.500399 -0.820552 -0.276217 255 255 255 255 
1.17441 0.00678638 0.792913 -0.863181 -0.459592 0.20903 255 255 255 255 
1.02032 0.0184796 0.8781 -0.670399 0.741007 -0.038386 255 255 255 255 
-0.0132386 -0.0741522 2.66833 -0.648111 0.551923 -0.524722 255 255 255 255 
1.0334 0.00768709 0.842336 0.216118 0.975437 0.0426228 255 255 255 255 
1.1272 0.0275905 0.884192 -0.729987 0.681867 0.0466524 255 255 255 255 
1.2921 0.0451579 0.785667 0.118101 0.951289 -0.284781 255 255 255 255 
1.10281 0.00604045 0.772669 -0.616079 0.709876 -0.341355 255 255 255 255 
0.0963658 -0.282333 2.23776 -0.786182 0.0657385 -0.614489 255 255 255 255 
1.09936 0.00452125 0.775308 -0.607277 0.6977 -0.380039 255 255 255 255 
0.902335 0.0407158 1.07295 -0.312686 0.743127 -0.591599 255 255 255 255 
1.16578 0.0178969 0.851372 -0.985607 0.0728123 -0.152567 255 255 255 255 
-0.00998926 0.0264888 2.87321 -0.362104 0.900819 -0.239593 255 255 255 255 
0.0672616 -0.00534368 1.93135 0.0973233 0.995136 -0.0152197 255 255 255 255 
0.178799 -0.188587 2.21885 -0.552921 -0.0711706 -0.830189 255 255 255 255 
1.16854 -0.00852925 1.03688 0.191377 0.976707 0.0970525 255 255 255 255 
0.967631 0.0277523 0.981636 -0.147766 0.868522 0.473112 255 255 255 255 
0.76357 0.64297 0.620958 0.322981 -0.449838 -0.832664 255 255 255 255 
1.15291 0.0515152 0.684401 0.0206096 0.960754 0.276634 255 255 255 255 
0.355749 0.0276142 1.63812 0.778423 0.53995 -0.320175 255 255 255 255 
1.2127 -0.00464249 0.778872 -0.280357 0.806726 -0.520185 255 255 255 255 
-0.0238433 -0.115575 2.62375 0.369631 0.908329 0.195733 255 255 255 255 
-0.606864 -0.18557 3.00426 -0.928349 0.283881 -0.239958 255 255 255 255 
0.432223 0.0241384 1.53805 0.314574 0.947124 0.0632492 255 255 255 255 
-0.031428 -0.138203 2.63091 0.352284 0.904999 0.23848 255 255 255 255 
1.22912 0.0346211 0.731657 -0.906197 -0.403815 0.125458 255 255 255 255 
-0.159854 0.0058465 2.21947 0.897556 0.435769 -0.0670773 255 255 255 255 
0.428651 0.063123 1.6095 0.763855 0.640953 0.0755279 255 255 255 255 
0.132979 -0.146315 2.27142 -0.567933 0.504388 -0.650419 255 255 255 255 
0.96937 0.0188256 0.925214 -0.901066 -0.426503 -0.0785816 255 255 255 255 
0.940425 0.0130973 0.978613 -0.694155 0.668151 -0.267811 255 255 255 255 
1.15936 0.0254105 0.863302 -0.12829 0.775867 -0.617716 255 255 255 255 
0.908025 0.0318489 1.02127 -0.0192717 0.943064 -0.332054 255 255 255 255 
0.904885 0.0217208 1.01668 -0.182611 0.912304 -0.366543 255 255 255 255 
1.33716 -0.0959917 0.881685 0.087226 0.742617 -0.664012 255 255 255 255 
0.230975 -0.173512 2.20568 -0.382596 -0.0457202 -0.922784 255 255 255 255 
-0.276328 -0.286113 2.36321 -0.757671 0.491546 -0.429322 255 255 255 255 
-0.653599 0.00308111 2.66413 0.538896 0.0437703 -0.841234 255 255 255 255 
1.33626 0.0283382 0.828066 -0.985533 0.115245 -0.124272 255 255 255 255 
0.416081 0.0452903 1.61603 0.763855 0.640953 0.075528 255 255 255 255 
-0.757423 -0.132144 2.93243 -0.629879 0.386197 -0.673873 255 255 255 255 
1.20456 0.00238109 1.0105 0.577564 0.796585 -0.178527 255 255 255 255 
0.834795 -0.362858 1.00832 -0.790583 -0.170898 -0.588024 255 255 255 255 
1.00854 0.0114587 0.873823 -0.481264 0.842955 -0.240441 255 255 255 255 
1.20279 0.0138485 1.01556 -0.854733 0.492106 -0.165118 255 255 255 255 
-0.140959 -0.072647 2.01498 -0.341801 0.894029 -0.289628 255 255 255 255 
0.871976 -0.149038 1.05762 -0.664535 0.0687273 -0.74409 255 255 255 255 
0.842838 0.0617647 0.692389 -0.691906 -0.630878 -0.351082 255 255 255 255 
0.838902 0.061278 0.684826 -0.54191 -0.346728 -0.76558 255 255 255 255 
1.20248 0.0438487 1.18085 -0.329486 -0.236334 -0.914104 255 255 255 255 
1.19431 -0.0087885 0.976107 -0.204854 0.941629 0.267153 255 255 255 255 
0.861352 -0.184034 1.03956 0.0688583 0.597672 -0.798779 255 255 255 255 
0.869339 -0.19449 1.03477 -0.800848 0.332788 -0.49789 255 255 255 255 
1.21114 0.00377613 0.981812 -0.189015 0.885286 -0.424903 255 255 255 255 
1.18101 -0.00820646 0.970744 0.581267 0.758881 -0.293647 255 255 255 255 
1.19472 0.00372687 0.959038 -0.307075 -0.100257 -0.94639 255 255 255 255 
1.15532 -0.00702333 1.00992 -0.595267 0.612962 -0.519552 255 255 255 255 
0.0591733 0.0205258 1.89371 0.0631096 0.99122 0.116194 255 255 255 255 
1.12768 -0.0814675 0.721071 -0.870989 0.196942 -0.450102 255 255 255 255 
1.14616 0.0424688 1.10879 -0.226468 0.972827 -0.0481603 255 255 255 255 
0.935607 -0.142349 0.715809 0.62849 0.436397 -0.643862 255 255 255 255 
1.18486 0.13615 0.638466 -0.396978 0.396181 -0.827919 255 255 255 255 
0.0252633 -0.121536 2.59057 -0.415996 0.890871 -0.182472 255 255 255 255 
0.0424676 0.0295588 2.12226 -0.283693 0.943687 0.170213 255 255 255 255 
-0.576475 0.00408244 2.83338 0.733484 -0.556827 -0.389801 255 255 255 255 
1.34761 -0.100248 0.874188 0.25297 -0.571957 -0.780302 255 255 255 255 
1.10414 0.0367437 0.930662 -0.587521 0.532666 0.609168 255 255 255 255 
1.25358 0.0176423 0.749332 0.674735 -0.11847 -0.72849 255 255 255 255 
1.21707 -0.00323075 0.79786 -0.4076 0.902575 0.138636 255 255 255 255 
1.23446 -0.00040555 0.799802 -0.260892 0.929531 0.26059 255 255 255 255 
1.22553 -4.16637e-05 0.791301 0.121941 0.988716 0.0870147 255 255 255 255 
1.11358 -0.00754416 0.958357 0.149909 0.175964 -0.972915 255 255 255 255 
1.23829 0.00360778 1.01566 0.0369725 0.993271 0.109756 255 255 255 255 
1.3264 -0.0472334 0.885616 -0.0568737 -0.306154 -0.950282 255 255 255 255 
1.22051 0.00367311 0.761094 -0.996258 -0.0842738 -0.0191712 255 255 255 255 
-0.624384 -0.28664 2.74008 0.900084 0.423777 0.101296 255 255 255 255 
-0.105941 -0.0635809 2.02004 -0.708639 0.658719 -0.252824 255 255 255 255 
-0.141701 -0.123187 2.01064 -0.25371 0.105538 -0.961506 255 255 255 255 
0.37651 0.0370162 1.52993 0.292478 0.777213 -0.557132 255 255 255 255 
-0.18086 0.0195421 2.07719 -0.271955 0.941489 -0.199094 255 255 255 255 
-0.104319 -0.092271 2.00251 -0.697915 0.324741 -0.638325 255 255 255 255 
-0.00334632 0.0150308 1.92405 0.0741042 0.961571 -0.264368 255 255 255 255 
-0.184276 0.0322531 2.05041 -0.725241 0.650593 -0.225286 255 255 255 255 
-1.41294 -0.117435 3.09327 -0.26367 0.862033 -0.43287 255 255 255 255 
0.292026 0.0550698 1.64295 -0.180954 0.97823 0.101592 255 255 255 255 
-0.358854 0.00759232 2.22227 0.19025 0.979495 0.0662994 255 255 255 255 
0.915743 0.0580844 0.659985 -0.0828783 0.602892 -0.793507 255 255 255 255 
0.898223 0.0371842 0.693397 -0.410051 0.855394 0.31648 255 255 255 255 
1.09602 0.0115059 0.829159 -0.270724 0.772836 -0.573962 255 255 255 255 
1.19252 0.0313823 0.698174 -0.348867 0.641293 -0.6834 255 255 255 255 
1.17178 0.0515833 0.693257 0.263505 0.910774 0.317893 255 255 255 255 
0.0272958 0.063149 2.45892 -0.390877 0.715644 -0.578851 255 255 255 255 
1.30085 -0.00143266 0.809376 -0.538796 0.813213 0.219965 255 255 255 255 
0.0175742 -0.0354516 2.31635 0.48379 0.874819 0.0252778 255 255 255 255 
0.453207 0.0152878 1.48983 -0.00546026 0.999446 0.0328289 255 255 255 255 
0.11824 -0.324295 2.20676 -0.786182 0.0657384 -0.614489 255 255 255 255 
1.02096 -0.0183291 0.863333 -0.130696 0.614114 -0.77832 255 255 255 255 
1.15977 0.0509827 0.693867 -0.441631 0.89171 0.0990737 255 255 255 255 
1.1298 0.0136923 0.852529 -0.0335603 0.869894 0.492096 255 255 255 255 
-0.416155 0.0275294 2.21297 0.139669 0.986861 0.081228 255 255 255 255 
0.0315254 0.00678125 1.9574 0.47945 0.874034 0.0786894 255 255 255 255 
1.38175 -0.0367901 0.901099 -0.878939 -0.0527251 0.47401 255 255 255 255 
1.19021 0.000387162 0.984036 -0.0514615 0.986116 -0.15788 255 255 255 255 
0.0135241 0.0233381 2.89795 0.0989678 0.643479 -0.759039 255 255 255 255 
-0.328364 0.0281755 2.18024 -0.527593 -0.580437 -0.620273 255 255 255 255 
1.21401 0.010048 0.716513 0.687011 0.370985 -0.624809 255 255 255 255 
1.36708 0.0306207 0.863328 0.276865 -0.0197179 -0.960707 255 255 255 255 
1.15078 0.0259432 0.875403 -0.491533 0.790999 0.364301 255 255 255 255 
1.12961 -0.0834387 0.722912 -0.870989 0.196942 -0.450102 255 255 255 255 
0.40705 0.0633877 3.12542 -0.286852 0.954408 -0.082587 255 255 255 255 
1.13748 -0.0526194 0.715106 -0.795779 0.116188 -0.594337 255 255 255 255 
1.1924 -0.00278184 0.74247 0.0467917 -0.788496 -0.613257 255 255 255 255 
1.17967 -0.00599614 0.735041 -0.352569 -0.639389 -0.683284 255 255 255 255 
0.324641 0.0231385 2.71151 -0.0857363 -0.931566 -0.353318 255 255 255 255 
-0.343951 0.033038 2.3087 -0.253661 -0.903925 -0.344349 255 255 255 255 
1.29889 0.0332135 0.79249 0.722715 0.124749 -0.679795 255 255 255 255 
0.682978 0.803446 0.614305 0.740586 -0.504163 -0.444243 255 255 255 255 
1.34315 0.041748 0.864612 -0.193118 0.26999 -0.943298 255 255 255 255 
1.32544 -0.0653826 0.967482 -0.1198 -0.0462957 -0.991718 255 255 255 255 
0.72083 0.758407 0.624752 -0.94921 -0.208265 -0.235853 255 255 255 255 
1.20473 -0.00183791 0.735047 0.531983 0.844773 -0.0579062 255 255 255 255 
1.14647 -0.0666989 0.701781 -0.961621 0.266466 -0.0654366 255 255 255 255 
0.050494 0.0276997 2.76728 0.0332541 0.932442 -0.359787 255 255 255 255 
0.0546205 -0.0332769 2.21603 -0.95364 0.300007 0.0237932 255 255 255 255 
1.29387 0.0261228 0.791419 0.695732 0.013299 -0.718178 255 255 255 255 
1.32563 -0.0153235 0.889329 0.0705587 0.803588 -0.590988 255 255 255 255 
-0.449239 -0.151537 2.73319 -0.58039 -0.467979 -0.66644 255 255 255 255 
1.20392 0.00825557 1.00046 0.282834 -0.06083 -0.957238 255 255 255 255 
1.28721 -0.0131713 0.789384 -0.388314 -0.763682 -0.515754 255 255 255 255 
0.423995 0.0301267 1.58425 0.253525 0.95533 -0.151889 255 255 255 255 
-0.630836 -0.297879 2.70445 0.944218 0.284657 0.165598 255 255 255 255 
0.907511 -0.0629807 1.02383 -0.614072 -0.134711 -0.777668 255 255 255 255 
-0.94892 -0.039762 2.66905 -0.277057 0.835168 -0.475114 255 255 255 255 
0.283679 0.0160862 2.50237 0.264595 0.963693 0.0358572 255 255 255 255 
0.286146 0.0321495 1.65326 0.235221 0.960521 0.14856 255 255 255 255 
0.0748161 0.0100164 2.25125 0.778301 0.410527 -0.475094 255 255 255 255 
1.2962 0.00442618 0.787336 0.48251 -0.0649557 -0.873479 255 255 255 255 
1.3313 -0.0336245 0.878163 -0.706603 0.702053 0.0885038 255 255 255 255 
-0.597267 -0.282839 2.89592 0.998404 -0.043437 -0.0361008 255 255 255 255 
1.15067 -0.00137475 1.03537 -0.795165 -0.601704 0.0752673 255 255 255 255 
1.37315 -0.0741828 0.891226 -0.909319 0.175911 0.377086 255 255 255 255 
1.03095 -0.0806772 0.858585 0.784795 0.435655 -0.440796 255 255 255 255 
1.08939 0.0286719 0.96757 -0.905721 -0.404817 -0.125671 255 255 255 255 
1.21276 -0.00159267 1.03118 -0.712675 0.701245 0.0187066 255 255 255 255 
1.23324 -0.00324974 0.79638 -0.231198 0.912154 0.338413 255 255 255 255 
1.22572 0.00401023 0.958318 -0.499367 0.86526 -0.0442484 255 255 255 255 
-0.0273993 -0.00809637 3.42033 -0.139845 0.986031 0.0904809 255 255 255 255 
1.38065 0.0131304 0.897294 -0.990848 -0.0762243 0.111404 255 255 255 255 
1.09864 0.0219751 0.920111 -0.0569343 0.80071 -0.596341 255 255 255 255 
1.15415 -0.00160032 0.949897 0.059569 0.705315 -0.706387 255 255 255 255 
-0.24242 -0.25223 2.95184 0.908765 0.0382163 -0.415555 255 255 255 255 
1.33292 -0.0784206 0.877995 -0.745969 0.295632 -0.596768 255 255 255 255 
1.37708 -0.0917754 0.889887 -0.5186 0.792443 0.321075 255 255 255 255 
1.37737 -0.0496957 0.895492 -0.888985 -0.146913 0.433731 255 255 255 255 
1.36555 -0.0879766 0.901313 -0.166702 0.84862 -0.50205 255 255 255 255 
-0.378173 -0.0847124 2.20606 -0.840806 0.171951 -0.513301 255 255 255 255 
-0.122845 0.0236079 1.94027 0.426802 -0.439193 -0.790538 255 255 255 255 
1.18909 -0.0146831 1.04334 -0.0599639 0.922528 0.381242 255 255 255 255 
1.36536 -0.0970335 0.902777 -0.291988 0.945732 0.142598 255 255 255 255 
0.211564 -0.0757054 2.24952 0.179331 0.921081 -0.345616 255 255 255 255 
1.0589 -0.0139345 0.797139 -0.598577 0.287928 -0.747531 255 255 255 255 
0.587493 0.0772611 2.83073 0.322883 0.873334 -0.364737 255 255 255 255 
1.1897 0.0378081 1.1385 0.539595 0.744384 -0.393357 255 255 255 255 
0.401829 0.093049 3.24797 -0.596384 0.62393 -0.505013 255 255 255 255 
0.385684 0.00811619 3.12362 -0.286852 0.954408 -0.082587 255 255 255 255 
1.38167 -0.0833886 0.904009 -0.806036 0.412412 0.424526 255 255 255 255 
1.37641 -0.0248407 0.881251 -0.957232 0.231868 0.173041 255 255 255 255 
1.35889 -0.0867066 0.87072 0.148349 -0.479934 -0.864671 255 255 255 255 
1.38285 -0.064096 0.907721 -0.924185 0.0387063 0.379979 255 255 255 255 
1.38478 -0.0763068 0.898018 -0.822638 0.319814 0.470091 255 255 255 255 
1.38969 0.0356199 0.933348 0.294799 0.589384 -0.752144 255 255 255 255 
1.34518 -0.0797895 0.932822 -0.751837 0.594065 -0.286055 255 255 255 255 
1.38254 0.12919 0.759975 0.602504 0.550288 -0.578076 255 255 255 255 
1.3855 -0.0304166 0.895341 -0.885948 0.184041 0.425705 255 255 255 255 
1.38356 -0.00796691 0.902745 -0.914174 -0.146637 0.377868 255 255 255 255 
1.37191 -0.0488434 0.87818 -0.952484 -0.0804974 0.29376 255 255 255 255 
1.38542 0.0412724 0.905755 -0.460517 0.86588 0.195384 255 255 255 255 
1.37937 0.0386482 0.931804 -0.853922 0.418194 0.309729 255 255 255 255 
1.38761 0.0392303 0.93369 -0.308292 0.941076 0.13904 255 255 255 255 
1.39157 0.0176282 0.980749 -0.252202 -0.289041 -0.923498 255 255 255 255 
-0.184272 0.001385 3.19218 -0.271358 0.844385 -0.46193 255 255 255 255 
1.37838 -0.0363432 0.879538 -0.930189 0.172555 0.323995 255 255 255 255 
1.3804 0.0351306 0.905993 -0.984598 0.16144 0.067107 255 255 255 255 
1.31992 0.0032531 0.809228 0.441163 -0.444024 -0.779884 255 255 255 255 
1.3332 -0.105495 0.878565 -0.0263211 0.952828 0.302367 255 255 255 255 
1.38155 -0.0594189 0.890838 -0.889065 -0.136593 0.436927 255 255 255 255 
0.00807631 0.0326559 2.71124 -0.827762 0.165535 -0.536105 255 255 255 255 
1.35514 0.0274002 0.86058 0.249611 0.208785 -0.94557 255 255 255 255 
1.37552 0.0173367 0.918144 -0.980046 0.154558 0.124983 255 255 255 255 
1.37022 -0.0560589 0.88173 -0.677263 0.481405 0.556385 255 255 255 255 
1.39717 0.0399321 0.949066 -0.860711 0.505737 0.0583666 255 255 255 255 
1.32479 -0.0872954 0.863734 -0.0788426 -0.170302 -0.982233 255 255 255 255 
1.2012 0.00414068 1.02384 -0.445652 0.648384 0.617246 255 255 255 255 
1.33192 0.00141612 0.819399 -0.781168 0.0247544 0.62383 255 255 255 255 
0.0938298 -0.132831 2.27423 -0.552519 0.709029 -0.43818 255 255 255 255 
0.929857 -0.0558606 1.01432 -0.941224 0.113667 -0.318083 255 255 255 255 
0.914418 -0.0464965 1.01628 -0.903997 0.0486066 0.424767 255 255 255 255 
1.17072 0.0427825 0.859197 0.555164 -0.215505 -0.803337 255 255 255 255 
-0.561782 0.0176065 2.76318 0.0614082 0.971147 -0.230441 255 255 255 255 
1.14892 0.0648284 0.921824 0.258861 0.959451 -0.111557 255 255 255 255 
-0.173127 -0.034869 2.13137 -0.606192 0.485704 -0.62978 255 255 255 255 
-0.655341 0.00262371 2.4393 0.0646987 0.95961 -0.273793 255 255 255 255 
-0.134551 -0.0599583 2.08384 0.23416 0.902494 -0.361487 255 255 255 255 
-0.278962 -0.0250134 2.24931 0.32412 0.90426 0.277958 255 255 255 255 
-0.222051 -0.0362228 2.05735 -0.428931 0.235211 -0.872178 255 255 255 255 
0.0273403 -0.146925 1.7082 0.148444 0.862025 -0.484641 255 255 255 255 
-0.164839 0.0390702 1.93641 -0.0453832 0.98269 -0.179613 255 255 255 255 
-0.562925 0.0385039 2.30331 0.960198 -0.224191 -0.166607 255 255 255 255 
-0.154089 -0.0431006 2.19162 -0.120957 0.988366 0.0922089 255 255 255 255 
-0.405822 0.0157942 2.13855 -0.218846 0.974732 -0.0447594 255 255 255 255 
-0.826902 -0.0107831 2.50228 -0.634046 0.379712 -0.673651 255 255 255 255 
-0.100119 0.050207 1.98704 0.0518603 0.956025 -0.288663 255 255 255 255 
-0.520038 -0.184934 2.33183 -0.657556 -0.00440253 -0.753392 255 255 255 255 
-1.03065 0.0272243 2.70917 0.101653 0.437721 -0.893346 255 255 255 255 
-1.19255 -0.0136184 2.72085 -0.382262 -0.805192 -0.453368 255 255 255 255 
-1.1166 -0.227888 2.68965 0.301865 -0.52968 -0.792664 255 255 255 255 
1.23047 0.0489363 0.734212 0.411584 0.849065 -0.33119 255 255 255 255 
1.16877 0.00560004 0.707881 -0.821466 0.0705343 -0.565878 255 255 255 255 
1.07532 0.00448036 0.799305 -0.896094 0.439173 0.0643617 255 255 255 255 
1.28559 0.0290728 0.767524 0.394381 0.0824317 -0.915243 255 255 255 255 
-0.319503 -0.0590648 3.0943 -0.607639 -0.200849 -0.768397 255 255 255 255 
1.22035 0.0414963 0.719218 0.506662 0.758799 -0.409289 255 255 255 255 
-1.23182 -0.175576 2.92898 -0.50562 0.654991 -0.561547 255 255 255 255 
1.10071 0.0126747 0.869994 -0.150467 0.987323 -0.0505251 255 255 255 255 
1.19206 0.00485113 1.00222 0.323765 0.943774 -0.0668375 255 255 255 255 
-0.528579 -0.112011 2.6949 -0.813862 -0.425991 -0.395172 255 255 255 255 
1.10723 0.0168655 0.839879 0.405643 0.88982 -0.208985 255 255 255 255 
-1.12616 -0.201034 2.64178 -0.501905 0.859271 -0.0987154 255 255 255 255 
0.0957967 -0.0946665 2.44613 -0.36524 0.906742 -0.210756 255 255 255 255 
0.989479 0.00397867 0.972752 -0.12968 0.97126 0.199595 255 255 255 255 
-0.376274 0.0574177 2.1848 -0.00692757 0.982111 0.188176 255 255 255 255 
0.327625 0.0370683 1.57941 -0.10373 0.939634 -0.326079 255 255 255 255 
-1.15434 -0.245246 2.68669 -0.919125 0.128178 -0.372532 255 255 255 255 
0.990966 0.00195605 0.91596 -0.938062 -0.303002 0.168018 255 255 255 255 
1.1412 -0.00484535 0.935828 0.626703 0.746563 -0.223356 255 255 255 255 
1.13623 0.00787807 0.795921 -0.698692 -0.52121 -0.490072 255 255 255 255 
-0.876703 -0.0410346 2.56213 -0.88115 0.336391 -0.332288 255 255 255 255 
-1.15816 -0.184064 2.81315 -0.355275 0.848034 -0.393216 255 255 255 255 
1.06766 0.0538672 0.730624 0.389229 0.921087 -0.00993982 255 255 255 255 
-0.34865 0.0415606 2.1229 -0.225493 0.97128 0.0759491 255 255 255 255 
1.02664 -0.0158752 0.849724 -0.570119 0.49848 -0.653056 255 255 255 255 
-0.410186 -0.250968 2.79282 -0.094131 0.985971 -0.137839 255 255 255 255 
0.904604 0.00921524 1.01223 -0.0152708 0.869979 -0.492853 255 255 255 255 
1.20647 0.031092 0.7051 0.741529 0.135292 -0.657138 255 255 255 255 
1.1588 0.0120178 1.02721 -0.516145 -0.704643 -0.486902 255 255 255 255 
1.16613 0.00194603 0.945592 -0.149998 0.923688 -0.352563 255 255 255 255 
1.11599 0.0211603 0.878769 -0.389415 0.878005 0.278324 255 255 255 255 
1.22826 0.02703 0.720339 -0.825062 -0.197374 0.529449 255 255 255 255 
-0.177148 -0.158023 2.16306 -0.198519 0.927518 -0.316702 255 255 255 255 
1.16844 0.00153062 0.963815 0.467162 0.88417 -0.0019328 255 255 255 255 
1.14658 0.0204628 0.92179 0.160931 0.956364 -0.243861 255 255 255 255 
-1.02633 -0.161893 2.57176 -0.306531 0.938333 0.159907 255 255 255 255 
0.940328 -0.00376886 0.957089 -0.131029 0.704583 -0.69742 255 255 255 255 
1.13099 -0.0611576 0.720229 -0.788758 -0.0147143 -0.614528 255 255 255 255 
-0.808558 -0.118589 2.53721 0.379549 -0.897275 -0.225476 255 255 255 255 
1.05434 0.0368407 0.763802 -0.521284 0.838172 -0.160408 255 255 255 255 
0.987029 -0.0014441 0.895388 -0.971111 0.210973 -0.111506 255 255 255 255 
1.20961 0.00703996 0.959418 0.138965 0.851006 -0.506437 255 255 255 255 
1.12215 0.000244141 0.983104 0.274949 0.859361 -0.431164 255 255 255 255 
1.25557 -0.0105373 0.798157 0.177595 0.902315 -0.392796 255 255 255 255 
1.29523 -0.00582978 0.819783 -0.147227 0.964055 -0.221182 255 255 255 255 
1.13526 0.0285746 0.940853 -0.270276 0.371691 -0.888142 255 255 255 255 
1.07198 0.0539224 0.742565 0.379083 0.905013 -0.192996 255 255 255 255 
-0.195159 -0.0156129 2.63923 0.492851 0.348268 -0.797375 255 255 255 255 
0.42034 0.0514859 3.12 -0.286852 0.954408 -0.082587 255 255 255 255 
0.0280653 0.00395942 2.27828 -0.645872 -0.122239 -0.753596 255 255 255 255 
1.39324 -0.0417325 0.973382 -0.610437 -0.440592 -0.658214 255 255 255 255 
1.12143 0.0458823 0.924148 0.0249868 0.941056 0.337327 255 255 255 255 
-0.249842 -0.09089 2.29123 -0.603064 -0.488109 -0.630923 255 255 255 255 
0.0271097 -0.0971839 2.53992 -0.751075 0.660216 -0.00122265 255 255 255 255 
1.04704 0.00198248 0.815675 0.492202 0.629028 -0.601715 255 255 255 255 
1.12439 -0.0901462 0.724901 -0.940107 0.231176 -0.250514 255 255 255 255 
1.26424 -0.0214853 0.834391 0.455668 0.88999 0.0168513 255 255 255 255 
1.13794 0.000959367 0.977711 -0.12875 0.987461 0.0913486 255 255 255 255 
1.45913 0.777494 1.13298 -0.737206 -0.674699 -0.0361756 255 255 255 255 
1.1907 0.0131579 0.930083 -0.617539 -0.0568355 -0.784484 255 255 255 255 
1.52086 0.744425 1.20004 -0.796271 0.553988 -0.243 255 255 255 255 
0.434252 0.0314793 1.60463 0.667109 0.724223 0.174546 255 255 255 255 
0.423341 0.0435455 1.47167 0.190504 -0.785511 -0.588796 255 255 255 255 
1.47888 0.263567 0.883783 -0.451433 0.538748 -0.711308 255 255 255 255 
1.00613 0.0170585 0.941909 0.186443 0.193235 -0.963275 255 255 255 255 
1.411 0.0352052 0.934339 0.248755 0.558794 -0.791119 255 255 255 255 
1.40907 0.053931 0.948004 0.0598248 0.789097 -0.611349 255 255 255 255 
0.81567 0.011531 2.39042 -0.935341 0.23708 -0.262547 255 255 255 255 
0.976909 0.0372626 2.06597 0.041386 0.995499 0.0852554 255 255 255 255 
1.48328 0.190943 0.855848 -0.183817 0.574152 -0.797848 255 255 255 255 
1.39293 0.0527029 0.902843 -0.659391 -0.736565 -0.150584 255 255 255 255 
1.39235 -0.0735651 0.967943 -0.266775 0.947256 0.177588 255 255 255 255 
1.38875 0.045344 0.876392 -0.374912 0.917028 -0.136015 255 255 255 255 
1.39415 0.038587 0.863771 -0.469844 0.877559 -0.0955885 255 255 255 255 
1.39143 -0.0232665 0.914543 -0.944167 0.0837475 0.318646 255 255 255 255 
1.10737 0.114448 1.90879 0.185227 0.486596 -0.853766 255 255 255 255 
1.37411 0.0339916 0.89875 -0.992194 0.120729 0.0312417 255 255 255 255 
