ply
format ascii 1.0
element vertex 869
property float x
property float y
property float z
property float nx
property float ny
property float nz
end_header
-1.09675 0.542215 3.98128 -0.325029 -0.563752 -0.759302
-0.733803 0.487499 3.75432 -0.0696652 0.963342 -0.259073
-0.998899 0.538119 3.92501 -0.108512 -0.978673 0.174427
-1.21065 0.454163 3.91686 0.17517 0.675089 -0.716638
-1.15402 0.508977 3.95458 -0.221152 0.469601 -0.854732
-1.20389 0.504814 3.98725 -0.0153974 -0.999061 0.0404866
-1.33985 0.546056 4.09819 -0.992153 0.113806 -0.0517656
-1.22364 0.450703 3.88993 0.133015 0.602918 -0.786637
-1.61298 0.521128 4.21854 0.170633 0.775585 -0.607744
-1.6971 0.467244 4.17179 -0.630158 -0.758637 0.16544
-1.67439 0.557684 4.29763 -0.393367 0.894464 -0.212593
-0.503863 -0.032854 2.61434 -0.141761 0.813364 -0.564218
-0.659724 0.00845468 2.70579 -0.712807 0.122246 0.690625
-0.919421 0.455365 3.63432 -0.122502 0.974819 -0.186335
-1.13847 -0.00611295 2.9758 -0.249882 0.9267 -0.28069
-0.650136 -0.0290228 2.71276 -0.434006 0.761725 0.481056
-0.73894 -0.032385 2.69403 -0.256644 0.966475 -0.00777904
-1.03172 0.0267597 2.90393 -0.490656 0.470276 -0.733551
-0.900564 0.0223558 2.80434 -0.283463 -0.0683858 0.956542
-1.50852 0.104921 3.34714 -0.416376 0.763931 -0.492991
-1.62728 0.0606245 3.32282 -0.694151 0.304881 -0.652075
-2.04072 0.297605 4.04598 -0.433939 0.757046 -0.488444
-2.12677 0.18611 3.92269 -0.0639715 0.898603 -0.434074
-2.09501 0.125572 3.75882 -0.133478 0.73162 -0.668518
-1.85735 0.307003 3.99174 -0.0199133 0.054561 -0.998312
-1.77365 0.246264 3.77878 -0.298686 0.827663 -0.475142
-1.01221 0.0848754 2.93338 -0.556791 0.771438 -0.308006
-0.668825 0.342416 3.48592 -0.176234 0.785178 -0.593664
-1.36942 0.519133 4.18183 0.165887 -0.931837 -0.322739
-1.38478 0.0457541 3.27521 -0.215076 0.921408 -0.323652
-0.996895 0.429644 3.70171 -0.672556 0.655279 0.343917
-1.80822 0.459946 4.23572 -0.350523 0.902332 -0.250861
-1.59045 0.520349 4.19537 0.292026 0.607745 -0.73849
-1.3526 0.42432 3.84395 -0.0541801 0.747472 -0.66208
-1.26511 0.38556 3.88134 -0.0326309 0.768672 -0.63881
-0.899074 0.451367 3.64502 -0.0935054 0.995539 0.0125636
-1.62601 0.300718 3.8038 -0.182504 0.742971 -0.643961
-1.84586 0.461617 4.22515 -0.513865 0.853815 -0.0833251
-2.13609 0.306005 4.09333 -0.223379 -0.939476 0.259783
-2.13571 0.259822 4.04669 0.0379478 0.994553 -0.0970803
-0.756172 0.289352 3.34809 0.0390046 0.703923 -0.709205
-2.04518 0.181927 3.86371 -0.318846 0.876623 -0.360374
1.42265 -0.452367 2.92376 -0.759825 0.0738202 0.645923
-1.67829 0.377893 4.01082 -0.0777431 0.991468 -0.104625
-1.87703 0.109657 3.65272 -0.649068 -0.410278 0.640611
-1.20095 0.623333 4.04808 -0.152832 -0.106643 -0.982481
-1.33614 0.421445 3.83236 0.21811 0.549216 -0.806715
-1.32697 0.524016 4.0591 0.0219387 0.942362 -0.333874
-1.7433 0.434727 4.07986 -0.313372 -0.392557 -0.864695
-1.49038 0.598106 4.28859 -0.128588 0.933258 -0.335403
-1.3349 0.578643 4.17301 0.0154951 -0.989301 -0.145066
-1.82234 0.356798 4.06447 -0.64832 0.177107 -0.740483
-1.6186 0.0523965 3.34088 -0.694151 0.304881 -0.652075
-1.71409 0.0846675 3.42701 -0.0695211 -0.987841 -0.139057
-2.02857 0.278039 4.01282 -0.230877 0.875395 -0.42471
-2.18628 0.283359 4.06515 -0.746486 0.642883 0.171639
-2.17721 0.223946 3.94841 0.287175 0.824147 -0.488171
-2.17236 0.224686 3.94382 -0.00498846 0.845801 -0.533476
-1.90534 0.143027 3.6385 0.0309879 0.0892128 -0.99553
-1.58356 0.368417 4.04144 -0.0909856 0.519664 -0.849512
-1.52172 0.439069 4.01537 -0.593862 0.746768 -0.299442
-1.79975 0.143591 3.72332 -0.364768 0.878539 -0.308404
-1.71327 0.334597 3.85935 -0.890124 -0.0646123 -0.451115
-1.82104 0.377796 4.0707 -0.395181 0.679211 -0.618469
-2.05653 0.307119 4.06851 -0.469688 0.782497 -0.408769
-1.53859 0.570113 4.25482 -0.218758 0.859511 -0.461938
-1.895 0.321956 3.99622 -0.255173 0.882006 -0.396172
-2.09451 0.227842 3.95565 -0.0663832 0.813738 -0.577429
-1.91912 0.286693 3.99295 -0.292294 0.841428 -0.454492
-1.81426 0.468446 4.25798 -0.304607 0.880603 -0.362978
-0.922588 0.471346 3.75023 -0.90019 0.0257734 0.434733
-0.968548 0.432446 3.72397 -0.876655 0.0613808 0.477187
-1.54401 0.135659 3.4154 -0.0392346 0.828887 -0.558038
-1.41789 0.253514 3.57877 -0.22271 -0.961762 0.159417
-2.04854 0.231089 3.90208 -0.592681 0.762502 -0.259463
-0.933509 0.146113 3.50726 -0.636001 0.618272 -0.461783
-1.34313 0.20535 3.51439 0.206293 0.719545 -0.663098
-1.56825 0.67721 3.96724 -0.490011 -0.310369 -0.814592
-1.82981 0.134775 3.62139 -0.290839 -0.375535 -0.879992
-1.43431 0.0964739 3.33231 -0.005212 0.806788 -0.590818
-0.891761 0.415687 3.62712 -0.161188 0.984282 0.0721555
-1.24294 0.506134 3.90662 -0.0143827 0.836105 -0.548381
-1.24014 0.500297 3.98405 -0.312089 0.8797 -0.358786
-1.87287 0.329293 3.93901 -0.740811 0.555896 0.377066
-1.91341 0.10485 3.73209 -0.331803 0.881737 -0.335331
-2.01084 0.280634 3.99513 -0.603762 0.453396 -0.65567
-1.78663 0.245206 3.78606 -0.298686 0.827663 -0.475142
-1.8405 0.124106 3.67529 -0.548627 -0.769791 0.326237
-2.08967 0.102034 3.6325 -0.706986 0.692998 -0.141157
-1.3676 0.529707 4.06553 0.10702 0.92749 -0.358204
-2.03238 0.409751 3.96711 -0.676844 -0.428559 -0.598515
-1.87277 0.426233 4.23786 -0.333395 0.891923 -0.305485
-0.876953 0.238702 3.25565 0.0625894 0.614519 -0.786415
-1.61514 0.574018 4.33242 0.0467248 -0.395843 -0.917129
-1.47465 0.0297495 3.86325 -0.651358 -0.7468 0.134249
-1.26585 0.239904 3.57837 -0.0586793 0.564662 -0.823233
-1.73961 0.39349 4.11496 -0.156438 -0.976647 0.14727
-1.93374 0.425171 4.24569 -0.125284 0.817852 -0.561625
-1.97063 0.433643 4.26989 0.0932723 0.831358 -0.547854
-1.85605 0.399082 4.20943 -0.448706 0.803865 -0.390467
-1.81807 0.279179 4.01114 -0.570001 0.0354987 -0.820877
-1.92876 0.352492 4.1589 -0.154135 0.882247 -0.44484
-1.77842 0.292564 3.95536 -0.0956305 0.992368 -0.0778443
-1.71958 0.124942 3.6302 0.352871 0.359375 -0.863905
-1.8922 0.242242 3.92538 -0.197107 0.849335 -0.489672
-1.97411 0.301302 4.0776 -0.0776752 0.731505 -0.677398
-1.88884 0.267968 3.95343 -0.540233 0.693707 -0.47636
-1.74736 0.218968 3.6787 -0.496605 -0.763196 0.413419
-1.95511 0.448686 4.31282 -0.340451 -0.929826 -0.139704
-2.01772 0.290743 4.04669 0.0978826 0.903751 -0.416718
-1.94935 0.458073 4.30223 -0.337823 -0.150622 -0.929079
-1.87092 0.122731 3.71783 -0.372114 0.887856 -0.270634
-1.80971 0.498463 4.35489 -0.694105 -0.557439 0.4555
-1.88334 0.214543 3.85345 -0.958154 -0.198486 -0.206261
-1.91591 0.276055 3.97023 -0.184303 0.819593 -0.542493
-1.94106 0.286471 4.02735 -0.347048 0.819336 -0.456341
-1.77834 0.120284 3.61212 0.231075 0.472051 -0.850748
-1.3643 0.500641 4.19847 -0.364404 0.893731 0.26164
-1.85474 0.139413 3.70291 -0.111815 0.956282 -0.270225
-1.46059 0.463066 4.17578 -0.0288088 0.994462 -0.101072
-1.8819 0.126818 3.72525 -0.372114 0.887856 -0.270634
-0.757373 -0.0873974 2.91776 -0.0265039 0.732016 -0.680772
-1.71203 0.389468 4.10274 0.11379 -0.10462 -0.987981
-1.73272 0.390845 4.06444 0.409825 0.270495 -0.871135
-1.65689 0.384578 4.01324 -0.160124 -0.973661 0.162313
-1.47612 0.392795 3.84544 -0.725892 0.292948 -0.622305
-1.6799 0.381398 4.03342 -0.0751137 0.952906 -0.293816
-0.664197 -0.055964 2.79955 -0.731382 0.668159 -0.136543
-0.902034 0.314175 3.44513 -0.641353 -0.630954 -0.436536
-1.50752 0.521954 4.10252 -0.307389 0.903807 -0.297732
-0.96892 0.455199 3.71711 -0.876655 0.0613808 0.477187
-1.8295 0.398908 4.11853 -0.230212 0.972835 0.0243666
-1.85221 0.361847 4.111 -0.594084 0.679811 -0.430025
-1.86164 0.369685 4.08391 -0.742748 0.0536055 -0.667422
-1.74993 0.361758 4.08746 0.166171 0.860164 -0.482189
-1.74114 0.38889 4.07605 0.166171 0.860164 -0.482189
-1.30178 0.352567 3.80913 -0.0400817 0.818904 -0.572529
-1.35375 0.479917 3.98352 0.0731763 0.877148 -0.474612
-1.71284 0.383374 4.08073 0.166171 0.860164 -0.482189
-1.6185 0.370717 4.01287 0.0422706 0.9328 -0.357906
-1.87244 0.418857 4.21783 -0.569174 0.697437 -0.435456
-1.48539 0.429797 3.99223 -0.433493 0.555515 -0.709567
-1.94344 0.363221 4.14148 -0.205066 0.84728 -0.489963
-1.78303 0.421134 4.19166 -0.371015 0.802925 -0.46654
-1.50689 0.454333 4.12272 -0.434327 0.800496 -0.412996
-1.89177 0.367396 4.14428 -0.396803 0.878916 -0.264677
-1.90032 0.185201 3.80647 -0.235462 0.842815 -0.483963
-1.88246 0.360439 4.11525 -0.433422 0.801728 -0.411555
-1.7379 0.452116 4.06681 -0.524209 -0.0122996 0.851501
-1.7668 0.398938 4.1293 -0.300902 -0.37378 -0.877352
-1.68617 0.258501 3.83534 -0.64262 0.727121 -0.241527
-1.91662 0.115014 3.72551 -0.545259 0.746456 0.38144
-1.95444 0.0903527 3.68268 -0.126433 0.937294 -0.3248
-1.672 0.267932 3.87416 -0.297662 0.811664 -0.502591
-1.68589 0.271646 3.90478 -0.129051 0.841612 -0.524438
-1.72828 0.186127 3.75811 -0.666408 -0.584417 -0.462986
-1.75406 0.153675 3.67014 0.305092 0.338056 -0.890301
-1.85189 0.258084 4.00192 -0.35886 -0.742075 0.566167
-1.82331 0.314531 4.03748 0.165988 0.578936 -0.798299
-1.82285 0.192511 3.80885 -0.494171 0.612668 -0.616793
-1.88545 0.315674 4.03482 -0.198362 0.980058 0.0117483
-1.73784 0.126703 3.65233 0.352871 0.359375 -0.863905
-1.84082 0.122633 3.69763 -0.259024 0.882066 -0.393531
-1.7049 0.351376 3.97655 -0.778828 0.625877 -0.0412877
-1.66507 0.366053 3.96782 0.159442 0.798764 -0.580133
-1.84785 0.313717 4.0226 -0.28693 -0.947299 0.142463
-1.94972 0.321679 4.06684 -0.166008 0.864994 -0.473527
-1.89025 0.312183 4.01524 -0.313841 0.948349 -0.046241
-2.15079 0.161605 3.80709 -0.0191699 0.978457 -0.205561
-1.79239 0.346915 4.05238 0.109447 0.586411 -0.802585
-1.87077 0.306167 4.00756 0.0862284 0.246873 -0.965204
-1.45057 0.111097 3.43237 0.0542684 0.95985 -0.275213
-1.35699 0.0496124 3.25354 -0.219979 0.938086 -0.26759
-1.15822 0.362755 3.6446 -0.0823134 -0.97204 0.219914
-1.65976 0.555014 4.29656 -0.393367 0.894464 -0.212593
-1.80318 0.199432 3.80115 -0.612566 0.781044 -0.12138
-1.55158 0.464959 4.05562 -0.418064 0.830863 -0.367273
-1.75594 0.410549 4.08644 -0.903768 -0.0257419 -0.427248
-1.83724 0.29544 3.94457 -0.0379034 0.915034 -0.401592
-1.96752 0.269132 3.95237 -0.230118 -0.901937 -0.365452
-1.85285 0.138306 3.71528 -0.192447 0.976468 -0.0973345
-1.71529 0.313674 3.9787 -0.680511 0.684225 -0.262185
-1.83721 0.318859 4.00869 0.101841 0.493588 -0.863712
-1.77776 0.0906922 3.57113 0.233483 0.488738 -0.840608
-1.85193 0.0957591 3.65956 -0.736982 -0.380534 0.558615
-1.76183 0.182241 3.63355 -0.371361 -0.412744 0.831705
-1.87436 0.196516 3.84235 -0.500561 0.376192 -0.779691
-1.76033 0.261002 3.9666 -0.206181 0.902575 -0.377953
-1.20801 0.18296 3.57714 -0.415388 0.788197 -0.454091
-1.78236 0.337097 4.0346 -0.0387898 0.746532 -0.664218
-0.73002 0.173684 3.30749 0.0178342 0.785108 -0.619103
-1.68617 0.198171 3.70863 -0.895475 -0.300876 0.328021
-1.85942 0.195751 3.78781 -0.202626 0.857457 -0.472981
-1.59594 0.412646 4.0602 -0.354949 0.709754 -0.608491
-1.45134 0.103279 3.39115 -0.27218 0.947282 -0.169044
-1.37358 0.340127 3.81277 0.0477181 0.630989 -0.774322
-1.54191 0.367088 3.93331 -0.380541 0.707688 -0.595287
-1.48439 0.336979 3.90858 -0.505655 0.737769 -0.447225
-2.06258 0.0713358 3.68679 -0.641776 0.0251482 0.76648
-1.58818 0.0313538 3.32214 -0.464961 0.316762 -0.826724
-2.06117 0.0685261 3.672 -0.74735 0.229312 0.623605
-2.0557 0.0586336 3.70481 -0.863017 -0.0860632 0.49779
-1.58032 0.0207171 3.33919 -0.464961 0.316762 -0.826724
-1.56181 0.043345 3.32095 -0.267999 -0.793118 0.546937
-1.9937 0.136676 3.73913 -0.157861 0.906196 -0.392286
-1.91133 0.0744896 3.59892 -0.0458968 0.98265 -0.179699
-1.57115 0.260763 3.77388 -0.427311 -0.853281 -0.29886
-2.07324 0.0839805 3.75301 -0.50132 0.698741 -0.510333
-1.93115 0.078829 3.65626 -0.0362005 0.935758 -0.35078
-1.77539 0.103317 3.62943 0.216622 0.694761 -0.685844
-1.88941 0.00598647 3.47542 0.00279906 0.937656 -0.347554
-1.85374 0.0201198 3.49325 -0.318034 0.481889 -0.816478
-1.9195 0.082835 3.63844 -0.0652407 0.960894 -0.269121
-1.16517 0.340083 3.6517 -0.0823134 -0.97204 0.219914
-0.792997 0.0406211 2.84661 -0.134602 -0.73412 -0.665545
-0.705306 -0.0275531 2.67012 -0.229641 -0.69525 0.681097
-0.767894 0.00564567 2.75508 -0.700487 0.274987 -0.658559
-0.900342 -0.0565202 2.80342 -0.31245 -0.325911 0.892277
-1.04835 -0.0283486 2.91673 -0.52395 0.637139 -0.56527
-0.982703 -0.1745 2.678 -0.237022 -0.668944 0.70451
-0.91675 -0.0391543 2.83826 -0.31245 -0.325911 0.892277
-0.815953 -0.136036 2.49853 -0.286695 0.912295 0.292444
-1.16036 -0.0464403 2.956 -0.127791 0.897664 -0.421744
-1.48484 0.0921311 3.386 -0.569489 0.814749 -0.108934
-0.591274 -0.140179 2.65734 -0.155958 0.88943 -0.429642
-0.9544 -0.0864043 2.80094 -0.121888 -0.502935 0.855687
-1.44964 0.0554729 3.3251 -0.273045 0.537853 -0.797597
-0.932781 0.0138859 2.83323 -0.062643 0.601802 -0.796185
-0.737344 -0.080587 2.64314 -0.128616 0.841851 -0.524161
-1.37782 0.0514145 3.31233 -0.215076 0.921408 -0.323652
-0.996657 -0.103406 2.76679 -0.111894 0.802302 -0.586337
-1.37876 0.0516487 3.32163 -0.197998 0.908063 -0.369077
-0.82925 -0.0449667 2.83486 -0.25388 0.0136372 -0.96714
-1.12016 -0.211391 2.559 -0.555042 -0.423548 0.715916
-1.00321 -0.165687 2.63731 -0.0400882 0.0315642 -0.998697
-1.13594 -0.173851 2.55106 -0.405364 -0.374287 0.83402
-1.15686 -0.25092 2.55153 -0.248413 -0.486254 0.837764
-1.10088 -0.159176 2.70901 -0.658654 0.586868 -0.470914
-1.09539 -0.170548 2.6403 -0.578434 -0.686201 0.44107
-1.10562 -0.263804 2.55843 -0.714761 -0.310667 0.62658
-1.01925 -0.243048 2.62048 -0.495481 0.809101 -0.315996
-1.55446 -0.0873395 3.10313 -0.39402 0.791334 -0.467482
-1.5518 -0.097547 3.10561 -0.39402 0.791334 -0.467482
-1.62989 -0.157079 3.01946 -0.421915 0.833953 -0.355684
-1.58672 -0.133294 3.05806 -0.436169 0.833079 -0.340199
-1.56614 -0.0796693 3.1443 -0.429508 0.82295 -0.371856
-1.52814 -0.0271783 3.20505 -0.242754 0.848562 -0.470121
-1.52243 -0.0292664 3.20121 -0.250082 0.8509 -0.461982
-0.720882 -0.129613 2.45224 0.0978273 0.988983 -0.111098
-1.54546 -0.043573 3.14497 -0.202685 0.846897 -0.491613
-2.03555 0.0898749 3.69282 -0.0508717 0.989459 0.135581
-1.5725 -0.0786349 3.14989 -0.429508 0.82295 -0.371856
-0.369512 -0.163142 2.50446 0.0177373 0.91745 -0.397455
-1.65035 0.033586 3.41088 -0.490079 0.173375 -0.854262
-1.86123 0.0766067 3.62994 -0.48447 0.874354 -0.0281773
-1.3961 -0.133306 2.97314 -0.454288 0.823408 -0.340031
-1.85112 0.0357289 3.49435 -0.318034 0.481889 -0.816478
-1.65708 -0.0687163 3.17868 -0.351372 0.819844 -0.452098
-1.43806 -0.19448 2.94646 -0.212531 0.913234 -0.347611
-1.36183 -0.0724039 3.03177 -0.411895 0.73634 -0.536792
-1.39028 -0.0657685 3.10349 -0.712368 0.660861 -0.236208
-1.23546 -0.171474 2.83045 -0.264172 0.802401 -0.535132
-1.06889 -0.0663451 2.82373 -0.388667 0.756428 -0.526074
-1.41495 -0.158333 3.00236 -0.414023 0.901711 -0.124507
-1.17868 -0.190232 2.72409 -0.202869 -0.951476 -0.231382
-1.40797 -0.109724 3.0212 -0.217126 0.750014 -0.624768
-1.54351 -0.151805 2.95679 -0.120618 0.882567 -0.454453
-1.99121 0.00919027 3.53588 -0.364579 0.798949 -0.478292
-1.32326 -0.173808 2.81672 -0.402933 0.667928 -0.625714
-1.54656 0.260786 3.76807 -0.31804 -0.931996 -0.173881
-1.75895 0.23401 3.87456 -0.260614 0.912502 -0.315312
-1.44548 0.0447557 3.32366 -0.273045 0.537853 -0.797597
-1.85686 0.200585 3.77764 -0.211427 0.883862 -0.417236
-1.86302 0.0788075 3.65243 -0.0907656 0.75241 -0.652411
-1.1553 -0.117369 2.6035 -0.880288 0.402384 0.251358
-1.55826 0.0558689 3.3751 0.266114 0.208832 -0.941049
-1.50373 0.0390373 3.3588 -0.211663 0.671111 -0.710499
0.703421 0.129772 2.24168 -0.342071 0.839858 -0.421458
-1.84981 0.108875 3.64327 -0.790574 0.157172 -0.591853
-2.04222 0.00892303 3.59298 -0.624774 0.579521 -0.523271
-1.70816 0.134576 3.65753 0.28421 0.50767 -0.813324
-1.71393 -0.0639376 3.27748 -0.593026 0.805182 -0.00160308
-0.638453 0.0216647 2.68898 -0.712807 0.122244 0.690625
0.808926 -0.215917 1.49357 -0.143518 0.925887 -0.349479
-1.20058 -0.110997 2.59977 -0.969746 0.217631 0.110591
-1.28127 -0.386995 2.3464 -0.431249 -0.849726 0.303298
-1.29965 -0.338898 2.34295 -0.431249 -0.849727 0.303297
-1.06972 -0.0629043 2.66414 -0.111807 0.986297 -0.121314
-1.24647 -0.340725 2.43681 -0.455865 -0.809516 0.369961
-1.34485 -0.295973 2.33032 -0.431249 -0.849726 0.303298
-1.06078 -0.128576 2.68427 -0.863867 0.0949868 -0.494682
-1.26746 -0.408776 2.3827 -0.455865 -0.809516 0.369961
-1.24242 -0.354291 2.44517 -0.455865 -0.809516 0.369961
-0.655236 -0.0704044 2.61018 -0.262137 0.532416 -0.804871
-0.569241 -0.0360211 2.57958 -0.261672 0.493109 -0.829682
-1.34419 -0.389039 2.16933 -0.431249 -0.849726 0.303298
-1.66525 -0.176966 2.97435 0.128779 0.699045 -0.703386
-1.61795 -0.154955 3.01943 -0.383808 0.847218 -0.367306
-1.71399 -0.205424 2.93459 -0.0763215 0.810558 -0.580665
-1.58566 -0.125854 3.05373 -0.436169 0.833079 -0.340199
-1.43351 -0.326994 2.53077 -0.370663 0.85629 -0.359689
-1.67523 -0.238146 2.93653 -0.336364 0.863892 -0.3749
-1.35287 -0.343165 2.46518 -0.106597 0.988998 -0.102565
-1.47908 -0.367393 2.55813 -0.373929 0.817977 -0.437139
-1.45252 -0.391107 2.5275 -0.446296 0.822042 -0.353649
-1.78151 -0.105314 3.10076 -0.0630727 0.850731 -0.521803
-1.88434 -0.134563 3.13278 0.12908 0.987218 -0.0934803
-1.76832 -0.117581 3.13661 -0.222404 0.930682 -0.290459
-1.87202 -0.14634 3.07993 0.12908 0.987218 -0.0934803
-1.82322 -0.149564 3.08634 0.157467 0.910377 -0.382645
-1.74275 -0.132593 3.1054 -0.0234911 0.810258 -0.585602
-1.78694 -0.145075 3.06865 0.157467 0.910378 -0.382644
-1.79064 -0.162371 3.08397 0.157467 0.910378 -0.382644
-1.72644 -0.142133 3.09894 -0.0822833 0.842903 -0.531736
-1.75271 -0.236967 2.92451 -0.110226 0.843167 -0.526231
-1.5997 -0.117977 3.10337 -0.358082 0.852908 -0.379901
-2.0321 -0.0860659 3.35161 -0.281373 0.84056 -0.462912
-1.70439 -0.0793425 3.18168 -0.284289 0.937963 -0.198505
-1.92967 -0.130902 3.27859 -0.071682 0.97284 -0.220099
-1.91962 -0.10469 3.26986 -0.071682 0.97284 -0.220099
-1.68519 -0.23692 2.96455 -0.336364 0.863892 -0.3749
-1.97166 -0.0965852 3.30784 -0.294316 0.85162 -0.433729
-1.84019 -0.119475 3.21166 -0.153497 0.975666 -0.156569
-1.68481 -0.202534 2.99031 -0.187595 0.85072 -0.491004
-2.06901 -0.0204889 3.51811 -0.470859 0.669512 -0.574496
-1.00583 -0.111421 2.63122 -0.276482 -0.598466 0.751929
-1.06109 -0.220097 2.69795 -0.310202 0.69326 -0.650512
-1.66666 -0.184206 3.02305 -0.111356 0.79932 -0.590497
-1.62388 -0.341858 2.66897 -0.323107 0.835421 -0.444606
-0.795494 -0.0287216 2.7383 -0.452613 0.749753 -0.482714
-0.679418 -0.125396 2.60721 -0.0402662 0.920779 -0.388002
-0.920393 -0.167805 2.6978 -0.310891 -0.804667 0.505824
-1.50832 -0.0437788 3.1665 -0.212552 0.806526 -0.551667
-1.87726 0.1049 3.68288 -0.408322 0.766147 -0.496278
-0.798393 -0.162087 2.71391 -0.544562 0.80955 -0.219274
-1.32746 0.0527699 3.20286 -0.136234 0.877013 -0.460749
-0.879629 -0.224167 2.63762 -0.224844 0.973308 -0.046015
-1.4671 0.113538 3.388 -0.27218 0.947282 -0.169044
-1.87906 0.0262094 3.49314 0.00279906 0.937656 -0.347554
-1.43991 -0.154066 2.93688 -0.212531 0.913234 -0.347611
-1.55851 0.000667444 3.2308 0.184555 0.909884 -0.371551
-1.525 -0.257269 2.82302 -0.288418 0.846116 -0.448223
-1.3765 0.0439054 3.24381 -0.219978 0.938086 -0.267589
-1.92849 0.0829329 3.64521 -0.16874 0.903016 -0.395081
-1.78385 0.300029 3.95683 -0.0956305 0.992368 -0.0778443
-1.59731 -0.270064 2.79292 -0.262067 0.852718 -0.451877
-1.5814 -0.087371 3.09869 -0.414044 0.811916 -0.411534
-1.4746 -0.0744402 3.06736 -0.0966888 0.800471 -0.591521
-2.21696 0.0150076 3.68587 0.101581 -0.272162 -0.956875
-0.971856 -0.0658196 2.77003 -0.121888 -0.502935 0.855687
-1.30626 -0.0840828 2.91723 -0.340734 0.891005 -0.300017
-1.84546 0.146783 3.77415 -0.0413084 0.786963 -0.615615
-1.05512 -0.0894112 2.78313 -0.454122 0.890929 0.00432099
-1.42512 0.0615168 3.30329 -0.0367113 0.76946 -0.637639
0.350239 -0.0558591 1.98945 -0.161554 0.946575 -0.279098
-1.99337 0.16399 3.82581 -0.0455308 0.804947 -0.591597
-1.28539 -0.274269 2.56038 -0.179487 0.880421 -0.438911
-1.66569 0.259561 3.83325 -0.527175 0.809364 -0.258875
-0.919973 -0.128848 2.7576 -0.163824 -0.693967 0.701122
-1.73365 -0.102524 3.23827 -0.276392 0.927278 -0.252514
-1.43702 -0.137956 2.98089 -0.141905 0.928596 -0.342889
-1.88312 0.185129 3.83043 -0.202626 0.857457 -0.472981
-1.03494 0.0285105 3.06132 -0.557663 0.820931 -0.122816
-2.22911 -0.00241885 3.68119 0.082663 -0.271583 -0.958858
-1.32843 -0.0944408 3.02282 -0.458026 0.795626 -0.396474
-1.34894 -0.0574321 3.05844 -0.265496 0.7753 -0.573081
-1.77811 0.229571 3.85589 -0.345355 0.873778 -0.342405
-1.86264 0.085836 3.64693 0.157123 0.428058 -0.889988
-1.29716 -0.0719274 2.93827 -0.340734 0.891005 -0.300017
-1.46339 -0.268379 2.69026 -0.368666 0.847477 -0.381927
-0.802981 -0.103062 2.61908 -0.570361 0.740763 -0.354907
-1.71444 0.193259 3.71753 -0.459561 0.749653 -0.47626
-1.73475 -0.0984991 3.23223 -0.283235 0.947879 -0.145954
0.339094 -0.0383771 2.0533 -0.161554 0.946575 -0.279098
-1.47725 -0.322696 2.63017 -0.398024 0.788601 -0.468706
-1.09083 -0.142943 2.77353 -0.71777 0.668738 -0.193897
-1.60455 0.32667 3.91273 -0.250396 0.764337 -0.594215
-1.08758 0.00531979 3.07926 -0.472304 0.871705 -0.130612
-1.83801 0.0598416 3.56689 -0.319326 0.915861 -0.24337
-1.22464 -0.103751 2.88138 -0.208062 0.786074 -0.582063
-1.25602 -0.0395011 3.01722 -0.128953 0.988876 0.0741342
-1.47265 -0.115487 3.04351 0.00283357 0.931247 -0.364378
-1.55583 -0.341155 2.68647 -0.323107 0.835421 -0.444606
-1.81308 0.273017 3.9205 0.015541 0.779469 -0.626248
-1.32788 -0.13187 2.92367 -0.329682 0.886684 -0.324193
-1.34198 -0.123972 3.0029 -0.561723 0.700675 -0.439911
-1.62536 0.343238 3.95384 -0.000198627 0.807122 -0.590385
-1.38735 -0.0807726 3.07124 -0.325444 0.733218 -0.597057
-1.78432 0.187486 3.76283 -0.393744 0.506652 -0.766987
-0.828753 -0.00628511 2.46965 -0.671364 -0.578486 0.463275
-1.82128 0.0433844 3.57479 -0.319326 0.915861 -0.24337
-1.78998 0.0713233 3.6107 -0.34461 0.580801 -0.737505
-0.661229 0.00948471 2.74684 -0.684 0.662874 0.304535
-1.26643 0.353657 3.72003 -0.297034 0.909287 -0.291494
-1.33705 -0.336575 2.35014 -0.431249 -0.849726 0.303298
-1.20373 -0.303196 2.48352 -0.133368 0.722633 -0.678243
-2.0946 0.0408587 3.58902 -0.807745 0.0540382 -0.58705
-1.57071 -0.0203826 3.22232 -0.242754 0.848562 -0.470121
-1.60772 -0.314548 2.80036 -0.262067 0.852718 -0.451877
-1.51555 -0.305217 2.72305 -0.368666 0.847477 -0.381927
-1.40118 -0.104574 2.92457 -0.478863 0.866592 -0.140388
-1.01817 0.102712 3.28892 -0.523098 0.79041 -0.318779
-1.14248 -0.239907 2.66008 -0.240591 -0.933019 0.267566
-1.89897 -0.0840814 3.05939 0.12908 0.987218 -0.0934795
-0.642738 -0.00222317 2.73259 -0.684 0.662874 0.304536
-2.66286 0.0771325 3.40549 -0.469761 0.304561 0.828593
-2.6799 0.103501 3.4061 -0.845845 -0.522258 0.108594
-2.83137 0.121161 3.33782 -0.542022 0.135085 0.829436
-2.66881 -0.0376954 3.53315 -0.850238 -0.329705 -0.410354
-3.83107 -0.150607 2.53738 -0.28719 0.847596 -0.446209
-3.54468 0.101123 2.85787 -0.154412 0.916889 -0.368064
-3.68069 -0.0480203 2.5336 -0.271401 0.845268 -0.460286
-5.85644 -1.66055 0.058182 0.395318 -0.718889 0.571772
-3.03823 0.39778 3.19892 -0.695851 0.70722 0.125024
-2.69218 0.118275 3.39192 -0.853933 -0.516847 0.0605587
-3.48011 0.148377 2.88495 -0.154412 0.916889 -0.368064
-3.3426 0.220246 3.0153 -0.0565589 0.736516 -0.674051
-2.62332 -0.0833554 3.48569 -0.690293 -0.721676 -0.0517536
-2.67564 0.0458254 3.51187 -0.535379 0.16649 0.82804
-3.08136 0.234529 2.88176 -0.555384 -0.132264 -0.821008
-3.10607 0.309254 2.8695 -0.485625 0.595944 0.639546
-2.5981 -0.117982 3.51879 -0.3627 0.808249 -0.463877
-3.15799 0.31251 2.82375 -0.133943 -0.243381 -0.960638
-3.13581 0.253641 2.90241 -0.974971 0.0640511 0.212907
-3.01677 0.412783 3.20785 -0.272254 0.909827 -0.313198
-3.06002 0.385081 3.1604 -0.792738 0.605226 0.0725857
-3.22127 0.369937 3.21557 -0.0272607 0.541637 -0.84017
-3.77903 -0.0651546 2.63242 -0.284718 0.845803 -0.451168
-3.25005 0.339085 3.16807 0.0606544 0.418943 -0.905985
-3.83401 -0.0606699 2.61201 -0.279223 0.886369 -0.369302
-3.50888 0.138806 2.89205 -0.154412 0.916889 -0.368064
-4.17082 -0.0619091 2.3036 0.790969 0.595263 0.141529
-5.96444 -1.50369 0.635171 0.0288544 0.948396 -0.315772
-3.08905 0.301663 3.00644 -0.676311 0.622745 -0.393436
-3.16637 -0.132896 3.81121 -0.402554 -0.771372 -0.492885
-2.96965 0.498514 3.33741 -0.56213 0.0435002 0.825904
-3.12492 0.126294 3.57268 -0.855731 0.30702 0.416489
-2.9708 0.480773 3.33976 -0.56213 0.0435002 0.825904
-3.17082 -0.122071 3.8229 -0.163265 -0.784148 -0.598712
-3.04425 0.234616 3.67588 -0.671033 0.507042 0.540946
-2.70961 0.175291 3.39453 -0.754958 -0.313103 -0.576199
-3.09834 0.319006 3.03694 -0.323985 0.859227 -0.395933
-4.05369 -0.211626 2.47141 -0.869704 0.479304 0.117823
-4.05149 -0.184412 2.60124 0.713791 0.632936 -0.299825
-4.22933 -0.0389685 2.24772 -0.406161 0.209685 0.889419
-4.27139 0.108258 2.24016 -0.168357 0.394129 0.903503
-3.05241 0.198219 3.69608 -0.767615 0.269175 0.581646
-3.12948 0.133628 3.56851 -0.855731 0.30702 0.416489
-3.13924 0.403188 3.2856 -0.707957 0.556711 0.434591
-3.14044 0.416604 3.27382 -0.707957 0.556711 0.434591
-2.67623 0.0928503 3.41116 0.31417 -0.0654042 -0.947111
-2.71264 0.144612 3.4035 -0.495909 -0.120229 -0.860011
-2.60895 -0.0402169 3.45059 -0.836179 -0.493557 -0.239178
-2.65986 0.0524488 3.41224 0.237326 -0.230397 -0.943712
-3.35786 0.313153 3.22642 0.262291 0.690299 -0.674307
-3.31965 0.35077 3.2513 0.201246 0.520238 -0.829971
-3.39305 0.310938 3.16758 -0.026888 0.944846 -0.32641
-3.28713 0.258008 3.0657 -0.500614 0.705555 -0.501575
-3.04171 0.195344 3.6941 -0.671033 0.507042 0.540946
-2.70327 0.136065 3.40974 -0.331575 -0.251225 -0.909365
-6.31868 -1.09108 1.68256 -0.294275 0.948823 0.114617
-3.08871 0.474213 3.02596 0.109242 0.171953 -0.979029
-3.26709 0.366889 3.26822 -0.250581 0.632181 -0.733182
-3.33062 0.332956 3.2168 -0.199797 0.941069 -0.272891
-3.02444 0.455025 3.25629 0.132934 0.832323 -0.538114
-3.17124 0.37709 3.20777 -0.511587 -0.192747 0.837334
-3.32973 0.351759 3.25533 0.362438 0.310299 -0.878836
-3.29052 -0.221425 3.86892 -0.500965 -0.854074 -0.139971
-5.56219 -0.79117 1.70837 -0.236765 0.971551 0.00558729
-6.63626 -1.34936 1.36332 0.506297 -0.829217 0.236775
-7.79196 -2.0471 -0.3623 0.038081 0.869242 -0.492918
-7.26802 -1.61085 0.934431 0.286454 -0.819383 0.496544
-6.55777 -1.38653 0.877126 0.469574 -0.640384 0.60779
-5.67376 -0.776804 1.50798 -0.319781 0.936338 0.144952
-4.5491 -0.58202 3.0752 0.980389 0.0108976 -0.196772
-8.66754 -2.53887 -0.486398 0.420372 -0.537198 0.731236
-4.95846 -1.80981 -0.0288186 0.146768 -0.805016 0.574811
-3.299 -0.138219 3.73883 -0.357058 0.90008 0.249731
-3.26049 0.389567 3.25961 -0.787892 0.484212 -0.380481
-4.76647 -0.803483 1.16863 -0.513944 0.853271 -0.0882594
-3.23127 0.324358 3.14627 0.333724 0.308036 -0.890922
-4.84115 -0.370091 2.5495 -0.332682 0.398841 0.854545
-4.52472 -0.548885 3.14758 -0.839197 0.435691 -0.325455
-3.02694 0.470259 3.27008 -0.778582 -0.335817 0.530129
-4.50498 -0.550198 3.1174 -0.839197 0.435691 -0.325455
-6.79267 -1.41965 1.53554 0.412095 -0.837079 0.359828
-6.96982 -1.27272 1.37382 0.57327 -0.763743 0.296745
-6.03569 -0.937198 1.62494 -0.259822 0.849114 0.459889
-6.11578 -0.994279 1.6842 -0.28844 0.866195 0.408054
-7.52279 -1.59856 -0.205751 0.275816 0.893571 -0.354197
-6.89733 -1.20319 1.48234 0.412095 -0.837079 0.359828
-4.79139 -0.404148 2.57536 -0.332682 0.398841 0.854546
-6.73045 -1.48961 1.24823 0.534972 -0.771352 0.344704
-5.54684 -3.99146 -4.41898 -0.339282 0.880678 -0.330598
-5.46784 -3.51113 -3.59592 0.0053903 0.902703 -0.430231
-4.28293 -0.0694773 2.32987 -0.191653 0.974655 -0.115401
-4.09266 -0.180234 2.40083 0.770145 0.509972 -0.383152
-3.22759 0.399099 3.21691 -0.480046 0.306626 -0.82191
-4.06838 -0.162285 2.53441 0.675447 0.56319 -0.476013
-4.27817 -0.341676 2.92577 -0.217986 0.948747 -0.228826
-3.20794 0.334497 3.19922 -0.496357 -0.699158 0.514595
-3.92969 -0.0289083 2.80274 -0.472701 0.813288 -0.339288
-4.49981 -0.355572 2.66949 -0.26205 0.955899 0.132613
-3.15094 0.419769 3.26878 0.335316 0.0876455 -0.93802
-5.93506 -2.7336 -1.7241 -0.343145 0.84559 -0.408937
-2.68898 0.122498 3.40982 -0.853933 -0.516847 0.0605587
-2.68317 0.122249 3.39844 -0.853933 -0.516847 0.0605587
-3.27359 -0.201983 3.72545 -0.041151 0.78324 -0.620356
-7.86987 -1.85629 1.0723 -0.0594971 0.937859 -0.341877
-7.94678 -1.79198 1.14385 -0.0594971 0.937859 -0.341877
-6.07652 -1.99843 0.538775 0.0890322 0.861706 -0.499535
-5.63012 -1.56048 1.00321 -0.133664 0.92693 -0.35062
-3.84391 -0.0928586 2.66668 -0.373219 0.850694 -0.370171
-5.2557 -0.831126 2.18335 -0.379592 0.924962 -0.0188301
-4.59949 -0.381625 2.58674 -0.309043 0.70287 0.640677
-3.57074 0.127857 2.9674 -0.222377 0.858253 -0.462548
-3.98885 -0.186374 2.53715 -0.216183 0.933367 -0.286517
-3.09029 0.455505 3.01846 0.0313542 0.144634 -0.988988
-4.81749 -0.975512 1.07375 -0.277361 -0.666109 0.692365
-4.63749 -0.274543 1.86463 0.508421 -0.589857 0.627357
-6.132 -2.16538 0.0456531 0.318014 -0.790378 0.523613
-5.1265 -1.83096 -0.191607 0.0131095 -0.790184 0.61273
-3.038 0.380638 3.16099 -0.418428 0.861693 -0.287059
-3.26333 0.386734 3.27044 -0.787892 0.484212 -0.380481
-3.19359 0.37326 3.25851 -0.711296 -0.512247 0.481312
-6.11749 -0.873604 1.65452 -0.28844 0.866195 0.408054
-3.16814 0.420672 3.27354 0.200296 -0.781198 -0.591279
-3.14288 0.317966 3.05912 0.0224174 0.286337 -0.957867
-3.15078 0.307 3.04303 -0.170235 0.140528 -0.975332
-5.88935 -0.718875 2.20718 0.836773 -0.542031 0.0775405
-6.33904 -1.02638 1.01469 0.667573 -0.64772 0.367158
-6.52562 -1.225 1.11318 0.578515 -0.694674 0.427491
-6.7474 -1.56865 0.961238 0.344079 -0.803102 0.486453
-4.60688 -0.607205 2.80812 -0.6482 0.654218 0.389661
-4.12809 -0.267576 2.48096 0.977423 0.0507118 -0.205117
-4.15604 -0.07986 2.51439 0.652299 0.643301 -0.400836
-4.87825 -0.308992 2.11937 0.829454 0.358465 0.428379
-4.44249 -0.304644 2.61507 0.530755 -0.240255 0.812759
-4.49292 -0.188978 2.72821 -0.0899007 0.632904 -0.768993
-4.20328 0.0385049 2.19386 -0.406161 0.209685 0.889419
-5.18383 -1.65115 0.65972 -0.391967 0.842021 -0.370624
-3.79196 -0.108526 2.65981 -0.373219 0.850694 -0.370171
-7.60901 -3.79988 -0.595889 -0.0134199 -0.347425 0.937612
-2.96647 0.497646 3.53651 -0.156091 -0.733677 -0.661327
-2.86854 0.572864 3.44202 0.0689514 -0.975548 0.208692
-4.17151 -1.64292 -0.551407 0.390486 0.853869 0.344135
-4.90794 -2.81678 -2.5946 0.0053903 0.902703 -0.430231
-3.10677 0.334887 2.83021 -0.19396 0.751036 0.63113
-6.68491 -2.59121 -0.110203 -0.0148315 0.819152 -0.573385
-3.02652 0.448143 3.26537 -0.82709 -0.155851 0.540031
-5.86968 -1.9009 0.489454 0.0890322 0.861706 -0.499535
-3.28217 -0.162108 3.86547 -0.026087 0.938565 -0.344115
-4.28721 0.0954472 2.30604 0.332738 0.342872 0.878479
-4.42742 -0.516439 2.12387 0.411598 0.627084 -0.661327
-4.22911 -0.0152952 2.24349 -0.406161 0.209685 0.889419
-3.10268 0.316345 3.06479 -0.388871 0.0303539 -0.920792
-3.0533 0.383176 3.1523 -0.792738 0.605226 0.0725856
-4.81262 -0.897385 2.94459 0.867609 -0.329047 -0.372803
-7.05663 -1.7238 0.956724 -0.419018 0.869624 -0.26111
-3.14526 0.439644 3.30166 0.363951 0.116989 -0.924042
-3.55458 0.138478 2.96843 -0.222377 0.858253 -0.462548
-3.25415 0.335399 3.152 0.197642 0.511833 -0.836041
-4.08707 -0.273338 2.34979 -0.860443 -0.168571 0.480854
-3.1039 0.291527 2.99063 -0.39506 0.77853 -0.487666
-4.09976 -0.271605 2.38492 0.860443 0.168571 -0.480854
-3.10738 0.293715 2.89209 -0.312844 0.052299 -0.948363
-3.09674 0.294544 3.01157 -0.39506 0.77853 -0.487666
-3.02413 0.469183 3.27914 -0.778582 -0.335817 0.530129
-2.95796 0.506052 3.34838 -0.56213 0.0435002 0.825904
-3.08843 0.350489 3.10259 -0.885363 0.423494 0.191793
-4.56471 -0.547989 3.15027 -0.839197 0.435691 -0.325455
-4.59809 -0.596494 3.06203 0.980389 0.0108976 -0.196772
-6.58207 -1.06394 1.52524 -0.376852 0.911133 -0.166792
-5.7254 -0.871021 2.73968 -0.066194 0.98784 0.140679
-3.24486 0.403098 3.22548 -0.0129184 -0.987696 -0.155852
-4.41087 -0.148617 2.29171 -0.0176066 0.98176 0.18931
-3.1825 0.599369 3.6047 -0.648486 0.683109 -0.335898
-3.15907 0.59697 3.59702 -0.648486 0.683109 -0.335898
-3.32169 0.471155 3.4914 -0.45816 0.841709 -0.285684
-3.3679 -0.128807 3.98031 -0.289657 0.747987 -0.597172
-5.86939 -0.710866 2.27844 0.528368 0.524384 0.667718
-6.59704 -1.12018 1.84836 0.594168 -0.79668 0.110748
-5.62357 -0.372886 2.30446 -0.123944 0.991097 -0.0486193
-2.98184 0.487174 3.3178 -0.56213 0.0435002 0.825904
-4.6953 -0.0286861 2.74902 0.222606 0.586664 -0.778635
-4.5548 -0.0465196 2.7853 0.739037 -0.158071 0.654857
-8.54987 -1.79569 0.824401 -0.16979 0.973742 -0.151649
-3.11012 0.448326 3.02539 0.135938 0.113446 -0.984201
-3.06546 0.376735 3.16613 -0.772595 0.57936 0.259688
-3.01837 0.346982 3.04102 -0.435451 0.810625 -0.391496
-3.0495 0.314763 3.03884 -0.353224 0.93533 0.0197707
-3.16244 0.269699 2.8715 -0.847008 0.0947992 0.523059
-2.89855 0.578061 3.44597 0.0689515 -0.975548 0.208692
-3.26774 0.325841 3.23848 -0.0551939 0.753627 -0.654981
-8.84273 -2.21588 2.75305 -0.12592 0.963866 -0.234747
-7.555 -1.66935 2.59747 0.504839 -0.0594451 -0.861164
-7.01383 -1.13502 2.22364 -0.32129 0.827812 -0.459891
-6.96707 -0.975323 2.23192 -0.301099 0.855291 -0.421683
-6.8236 -1.07743 2.29812 -0.267961 0.911545 -0.3119
-8.60605 -2.1987 2.83029 -0.12592 0.963866 -0.234747
-7.36781 -1.21452 2.09153 -0.385236 0.922815 -0.00227142
-7.57294 -1.67371 2.55083 0.504839 -0.0594451 -0.861164
-8.09099 -2.15346 2.44553 -0.0156455 0.602556 -0.797924
-7.55757 -1.3134 2.62617 0.524888 -0.240927 -0.816362
-8.06546 -2.11064 3.08522 -0.0357123 0.987119 0.155948
-7.20348 -1.2272 2.14081 -0.235198 0.923456 -0.303169
-7.82751 -1.96481 2.51403 0.663634 -0.292492 -0.688505
-7.30372 -1.30792 2.12064 -0.385236 0.922815 -0.00227142
-6.00439 -0.853662 2.58224 -0.425316 0.895949 -0.127992
-7.95132 -2.16197 2.5572 0.396093 0.744111 -0.537967
-6.10169 -0.73882 2.42034 0.576557 -0.741946 0.342197
-3.3451 0.358364 3.20529 -0.570155 0.619493 -0.539585
-7.9736 -1.94953 2.41558 0.115611 -0.298825 0.947279
-4.45558 -0.0754268 2.34887 -0.0176066 0.98176 0.18931
-7.72254 -1.43792 2.53786 0.853852 -0.518726 -0.0431319
-7.94656 -1.66825 2.7434 0.443224 0.2556 0.859198
-7.49946 -2.05124 2.75873 0.628465 -0.673268 0.389541
-3.03369 0.0861536 3.75329 -0.819937 0.169568 0.546764
-3.52107 -0.174484 4.02972 -0.463671 0.72973 -0.502496
-3.58449 -0.21585 4.02546 -0.426773 0.199725 -0.882029
-3.45757 0.364971 3.39231 -0.515384 0.766068 -0.384082
-4.26272 -0.0125637 2.55107 0.0244972 0.939942 0.340453
-7.16375 -1.61471 1.33005 -0.139899 0.901292 -0.41
-3.05229 0.206974 3.67205 -0.822392 0.266647 0.502564
-3.61767 -0.231264 3.99814 0.217641 -0.214856 -0.952087
-7.8057 -1.91644 2.98322 0.675809 0.474024 0.564433
-9.66662 -2.05826 1.56151 -0.345817 0.932131 -0.107436
-3.73126 -0.243202 3.98165 0.233442 0.44269 -0.865754
-7.8453 -2.26216 2.62301 0.0901148 0.988132 -0.124394
-6.00448 -0.152173 2.28989 0.819384 -0.515371 0.251005
-3.20775 0.588291 3.65221 -0.674886 0.544718 -0.497807
-3.68821 -0.293716 3.90667 0.0961991 0.37886 -0.920441
-3.03673 0.452182 3.25395 -0.799097 -0.421228 0.428964
-3.23137 0.307634 3.1751 -0.673407 0.585292 0.451615
-8.90726 -1.94975 2.85317 -0.0116221 0.792607 -0.609622
-8.30913 -1.76607 2.75345 0.690803 -0.693706 0.203871
-8.58705 -2.07964 2.42865 -0.186241 0.968181 -0.167152
-7.39488 -1.23716 2.70208 0.880388 -0.472951 -0.0351336
-8.52007 -2.06628 2.90553 0.568866 -0.806666 0.160257
-8.3222 -1.95523 2.50978 -0.27453 0.847585 -0.454129
-6.42019 -1.17516 3.26333 -0.236059 0.670201 0.703638
-6.13705 -1.20894 3.4634 0.728922 0.664666 -0.163988
-6.02971 -1.16837 3.46519 0.728922 0.664666 -0.163988
-8.75659 -1.89266 1.82599 0.0637193 0.99792 0.00980311
-10.2302 -2.23238 1.9166 0.497871 -0.863701 -0.0783846
-3.98085 0.15956 3.65811 -0.219371 -0.721865 -0.656344
-3.16489 0.601994 3.64635 -0.743 0.378745 -0.551818
-3.5524 -0.18065 3.99442 -0.426773 0.199725 -0.882029
-3.5786 -0.138034 4.0746 0.488138 0.105735 -0.866338
-7.62746 -1.31041 1.99869 0.551254 -0.824667 -0.126664
-10.7317 -2.24184 2.22865 0.439391 -0.894398 -0.0835901
-9.66642 -1.90041 2.0433 -0.320245 0.947058 -0.0229154
-3.17969 0.574847 3.58664 -0.625209 0.732308 -0.269885
-4.12647 -0.19627 3.04007 -0.418565 0.873722 -0.247817
-4.37322 -0.190047 2.56072 -0.64655 0.509998 0.56734
-2.96147 0.473225 3.31853 -0.56213 0.0435002 0.825904
-3.59533 0.116325 2.95762 -0.222377 0.858253 -0.462548
-4.93579 -0.406724 2.53653 -0.332682 0.398841 0.854545
-4.04828 -0.24681 2.46708 0.860443 0.168571 -0.480854
-4.44414 -0.265206 2.59901 0.736988 0.0992903 0.668574
-6.23844 -0.898228 2.2546 -0.456933 0.881357 -0.120092
-4.74477 -0.369674 2.57171 -0.332682 0.398841 0.854545
-3.22049 0.351808 3.17136 -0.501111 -0.6625 0.55676
-3.0817 0.338114 3.16222 -0.828911 0.532984 0.169808
-4.82237 -0.297374 2.56704 -0.332682 0.398841 0.854546
-3.18045 0.343853 3.20284 0.299344 -0.00732225 -0.954117
-4.04179 -0.246738 2.46877 -0.860443 -0.168571 0.480854
-2.70112 0.0683898 3.39482 -0.100965 -0.135673 -0.985596
-3.16357 0.386933 3.29889 0.312093 -0.218306 -0.92463
-3.21829 0.263029 2.85444 -0.440528 -0.445922 0.779159
-3.16133 0.3133 2.81777 -0.133943 -0.243381 -0.960638
-3.15447 0.313082 2.83094 -0.133943 -0.243381 -0.960638
-4.04584 -0.149827 2.76038 -0.423429 0.893725 -0.148198
-3.07533 0.306777 3.0352 -0.153609 0.934812 -0.320203
-3.04786 0.42001 3.25598 -0.937633 0.340817 -0.0684716
-3.02791 0.43034 3.25625 0.115702 0.0815324 -0.989932
-3.05405 0.40394 3.2884 -0.838968 0.107498 -0.533457
-3.14746 0.361799 2.93188 0.110878 0.0207771 -0.993617
-3.12179 0.206498 2.87646 -0.566399 -0.630867 -0.530282
-3.14497 0.24339 2.86251 -0.500785 -0.619886 -0.604116
-6.45629 -1.07127 1.90462 -0.357865 0.93042 -0.0790697
-4.37147 -0.110526 2.52013 -0.528712 0.721575 0.446982
-3.11416 0.308723 3.16814 -0.115941 0.993013 -0.0219932
-3.0077 0.429483 3.26011 -0.19506 0.168593 -0.966193
-3.16469 0.262841 2.86291 0.00223641 -0.818146 -0.575006
-3.20487 0.450404 2.75309 -0.871031 0.484389 0.0816814
-3.28922 0.130888 2.89251 -0.76508 -0.262037 -0.588208
-2.69677 0.0320699 3.40958 -0.371902 -0.406596 -0.834487
-2.70293 0.0563766 3.41675 -0.285729 -0.2958 -0.911516
-2.67298 -0.0377741 3.40367 0.184134 -0.176702 -0.966887
-2.68746 0.042884 3.39327 0.130868 -0.304846 -0.943368
-2.94119 -0.0952867 3.85801 0.323144 -0.456838 -0.82878
-3.13135 0.40892 3.00899 0.135938 0.113446 -0.984201
-3.17027 0.341285 2.81799 -0.297156 -0.502485 -0.811916
-3.11448 0.280333 3.03807 -0.822446 0.320021 -0.470287
-3.15253 0.299223 2.83788 -0.397285 -0.540281 -0.741796
-3.16945 0.199417 2.83577 -0.882799 -0.450022 0.134707
-3.14165 0.217123 2.90537 -0.873634 -0.443777 -0.199564
-3.76123 -0.278612 2.26716 0.115233 0.79524 -0.595243
-4.56102 -0.818287 1.5737 0.522632 -0.512787 0.681106
-3.08094 0.460705 3.03177 0.109242 0.171953 -0.979029
-3.23955 0.449082 2.76508 -0.871031 0.484389 0.0816814
-3.76534 -0.355937 2.15672 -0.349429 0.894702 -0.278221
-4.58451 -0.88874 1.56493 0.0157971 0.925166 -0.379233
-4.51098 -0.846751 1.53793 0.4264 -0.699634 0.57332
-3.74874 -0.353414 2.1248 -0.461047 0.885904 -0.0510739
-4.37579 -0.04112 2.34927 -0.0176066 0.98176 0.18931
-4.04184 -0.255578 2.46937 -0.860443 -0.168571 0.480854
-6.45491 -1.01183 1.57228 -0.366029 0.885041 0.287622
-4.4813 -0.0840524 2.40193 0.790598 -0.585261 -0.180068
-6.20686 -1.46796 0.670167 0.334209 0.611788 -0.716952
-4.36881 -0.62085 1.59318 -0.815024 0.540268 0.209394
-4.20545 -0.539295 1.7124 -0.649164 0.601402 0.465727
-4.02289 -0.522667 1.94992 -0.364634 0.911835 0.188677
-3.16623 0.646763 2.83585 -0.85498 -0.0663202 0.514404
-4.43934 -0.0547618 2.40059 -0.0141215 0.982145 0.187594
-8.75589 -1.94129 0.753424 -0.234606 0.936141 -0.261915
-4.58456 -0.396453 2.63654 -0.313277 0.692479 0.649869
-2.57488 0.512008 3.23984 -0.0812937 0.0852938 -0.993034
-2.67528 -0.0941 3.53742 -0.884527 -0.243337 -0.397993
-2.67732 -0.106376 3.53252 -0.188006 -0.631497 -0.75224
-2.6282 -0.153758 3.45654 -0.82599 -0.228137 0.515455
-2.56903 0.511267 3.25561 -0.0812937 0.0852938 -0.993034
-2.62048 -0.20828 3.50503 -0.876425 -0.187738 0.443434
-2.63824 -0.200506 3.43787 0.241472 0.603627 -0.75982
-2.66688 -0.111458 3.54562 -0.0418275 0.987382 0.152731
-2.65693 -0.0926619 3.50812 -0.729397 -0.360693 -0.581275
-2.64964 -0.0874837 3.5014 -0.677663 -0.36751 -0.636953
-2.66198 -0.16725 3.6033 -0.644089 -0.764888 0.00977998
-2.68934 -0.054458 3.50871 0.0879928 0.760452 -0.643405
-2.67895 -0.0424514 3.50654 0.0879928 0.760452 -0.643405
-2.69678 -0.123872 3.55603 -0.966791 -0.203353 -0.154798
-2.60711 -0.190692 3.56668 -0.930219 -0.00428589 -0.36698
-2.56806 -0.184747 3.53579 -0.775203 0.0682166 0.628018
-2.95222 -0.0682847 3.87726 -0.816366 0.270286 0.510384
-2.75221 0.11028 3.42769 -0.885044 0.0662723 -0.460766
-3.22146 0.408451 2.7777 0.0244782 -0.336515 -0.94136
-4.42705 -0.0344237 2.22789 0.171721 0.867176 0.467458
-4.33593 -0.437291 1.61525 -0.680826 0.674979 0.284393
-4.35237 -0.736 1.68426 -0.688624 0.654747 0.311613
-3.79198 -0.363997 2.15418 -0.97877 0.197042 0.056432
-3.7907 -0.338763 2.02252 -0.836756 0.313699 0.448812
-4.39138 -0.466813 1.59288 0.574004 0.817056 0.0542069
-2.96807 0.463613 3.34433 -0.56213 0.0435002 0.825904
-3.18992 0.356372 2.82965 -0.630148 -0.599864 -0.493028
-3.24262 0.16738 2.91812 -0.377799 0.619541 0.688067
-3.86185 -0.351792 1.95352 -0.690405 0.522902 0.499915
-4.41736 -0.50896 1.28563 -0.0746725 -0.800477 0.594694
-3.76271 -0.32151 2.00131 -0.0464616 0.954057 0.296
-4.37289 0.00919511 2.18072 0.388122 0.890027 0.239191
-3.0708 0.192477 2.86193 -0.347583 0.246486 -0.904672
-3.55912 -0.299845 2.10984 -0.319936 0.80549 -0.498825
-3.565 -0.292751 2.12597 -0.314726 0.805236 -0.502536
-4.17717 -0.87715 1.34187 -0.786852 -0.0336605 0.616223
-2.81175 0.267752 2.92286 -0.859616 0.148167 0.488985
-5.29123 -1.73392 0.0568176 0.454752 -0.726104 0.515725
-3.83886 -0.446498 1.99822 -0.765698 0.190061 0.614478
-6.09383 -2.54358 -0.691361 -0.323571 0.834506 -0.445985
-3.81318 -0.560693 1.83248 -0.269928 -0.48624 0.831089
-4.18662 -0.536718 1.76531 -0.711421 0.70251 0.0189598
-4.28889 -0.614795 1.61287 -0.874031 0.400427 0.275187
-2.58227 0.514585 3.23816 -0.0812937 0.0852938 -0.993034
-2.55324 0.519821 3.23916 -0.160071 0.0760133 -0.984174
-2.6786 0.397987 3.06844 -0.205414 0.161849 -0.965199
-2.5702 0.537296 3.24398 -0.395269 0.140447 0.907765
-3.28281 0.346727 3.23828 -0.123647 0.739783 -0.661386
-3.19941 0.440875 2.76169 -0.871031 0.484389 0.0816814
-4.41705 -0.948716 1.11979 -0.772563 -0.184569 0.60752
-5.28085 -1.85089 -0.0524719 -0.0131095 0.790184 -0.61273
-5.01639 -1.63108 0.242089 -0.262222 -0.651472 0.711916
-3.28298 -0.159835 2.3356 -0.200326 0.894669 -0.399295
-3.85534 -0.3644 1.81148 0.205197 -0.711524 0.672032
-5.39377 -1.89865 -0.193445 0.0131095 -0.790184 0.61273
-3.20957 -0.0902454 2.37819 -0.158005 0.793135 -0.588194
-2.87919 0.206423 2.8081 -0.498025 0.812997 -0.301675
-3.5428 -0.383386 2.04612 -0.330681 0.802032 -0.497388
-6.1571 -0.762691 1.51036 -0.28844 0.866195 0.408053
-3.18891 0.489879 2.83344 -0.912197 0.119789 0.391852
-4.6198 -0.314697 2.68902 0.425221 -0.217796 -0.878494
-4.25864 0.00621375 2.46247 -0.0265624 0.98229 0.185474
-6.83171 -1.37434 1.68473 0.498655 -0.862688 0.0843381
-3.18281 0.459578 2.77064 -0.871031 0.484389 0.0816814
-4.37087 -0.0600767 2.14572 -0.00443121 0.938848 0.344304
-4.4897 -0.369587 2.68564 -0.262049 0.9559 0.132613
-3.05012 0.0596323 2.6167 -0.312275 -0.875297 0.369243
-3.87834 -0.457705 1.8482 -0.720778 -0.505848 0.473917
-3.64001 -0.32249 2.11752 -0.288352 0.767384 -0.572691
-3.12783 0.213803 2.91539 -0.873634 -0.443777 -0.199564
-3.75141 -0.400226 2.09374 -0.329356 0.90923 -0.254607
-2.90556 0.219982 2.83609 -0.498025 0.812997 -0.301675
-2.80914 0.302815 2.93686 -0.576973 0.81656 0.0182425
-3.82001 -0.401417 1.83064 -0.903398 -0.370462 0.215942
-3.04528 0.411705 3.28584 -0.818628 0.258937 -0.512639
-5.31127 -1.75164 -0.033245 0.454752 -0.726104 0.515725
-3.10154 0.24865 2.86736 0.0250997 0.253837 -0.966921
-3.28594 0.305704 3.1504 -0.530967 0.269954 0.803242
-3.31844 0.277222 3.12336 0.365621 0.654121 -0.662153
-4.35331 -1.13959 0.995531 0.0402519 0.894691 -0.444869
-4.93134 -1.59941 0.418014 -0.552112 0.830819 -0.0700849
-4.40429 -0.0250061 2.26242 -0.397694 0.914578 0.0733968
-3.13115 0.263758 3.06422 0.0644331 0.0558803 -0.996356
-4.08004 -0.502468 1.79883 -0.157543 0.986905 0.0346331
-2.68726 0.0282126 3.4222 -0.371902 -0.406596 -0.834487
-2.60781 -0.155298 3.49567 -0.767298 0.633501 -0.0996481
-2.59414 -0.197064 3.53902 -0.925999 -0.155198 0.34415
-2.60674 -0.210102 3.52061 -0.905334 -0.32174 0.277227
-3.17229 0.257232 3.05413 0.0742946 0.0959422 -0.99261
-4.13081 -0.20681 2.83628 -0.570963 0.820916 0.00990718
-3.26709 0.351451 3.22572 -0.700917 0.505483 -0.503191
-3.29079 0.231592 3.07187 -0.293614 0.834997 -0.465372
-3.33611 0.197632 3.02876 -0.0874348 0.812879 -0.575832
-3.30628 0.380909 2.68045 -0.704986 0.152162 0.692706
-3.2441 0.296432 2.81568 -0.455719 0.33695 0.823884
-4.37378 -0.313813 2.68001 0.226622 0.601808 0.765813
-4.38252 -0.305665 2.63145 0.226622 0.601808 0.765813
-4.38965 -0.332147 2.59953 -0.33804 0.695216 0.634352
-4.62267 -0.486402 2.73039 -0.367363 0.557909 0.744165
-3.20288 0.341118 2.89142 -0.811101 0.335486 0.479129
-4.31372 -0.344679 2.74618 0.513605 0.832248 -0.208744
-3.22834 0.396147 2.77989 -0.229079 0.471547 0.851567
-3.85275 -0.35452 1.93271 -0.888819 -0.408918 0.20685
-3.08052 0.331765 3.15323 -0.842508 0.537017 0.0423497
-3.87615 -0.368987 1.83544 -0.508981 0.787136 -0.34836
-3.12614 0.156172 2.85807 -0.264605 -0.741811 0.616198
-3.90593 -0.416892 1.96386 -0.535481 0.358392 0.764732
-3.08539 0.26664 2.97595 -0.439144 0.801446 -0.406
-4.19939 -0.806521 1.34994 -0.827813 -0.120232 0.547968
-2.85012 0.254664 2.87163 -0.745021 0.507628 0.432731
-2.85543 0.235099 2.86543 -0.6604 0.744777 -0.0958087
-3.66575 -0.409376 1.98058 -0.0910283 0.857452 -0.506448
-3.49867 -0.37323 1.91989 0.772563 0.278625 0.570539
-3.84785 -0.514065 1.75834 0.539365 0.163685 0.82601
-2.69368 0.397072 3.06874 -0.205414 0.161849 -0.965199
-2.57068 0.461639 3.08321 -0.929957 -0.367443 -0.0128961
-2.57317 0.460203 3.08588 -0.753538 -0.288465 0.590736
-2.54862 0.518336 3.22961 -0.160071 0.0760127 -0.984174
-2.60987 0.428701 3.03642 -0.302899 0.40346 -0.863407
-2.61831 0.430383 3.06993 -0.265875 -0.205123 0.941932
-2.66061 0.416315 3.08593 -0.0538019 0.0391207 -0.997785
-2.55777 0.44944 3.08905 -0.975504 0.0103745 0.219737
-2.53248 0.519185 3.23997 -0.160071 0.0760127 -0.984174
-2.54856 0.426604 2.99922 -0.356285 0.832146 -0.424963
-3.80621 -0.461204 1.92782 0.64718 0.757267 0.087777
-2.9084 0.207483 2.82601 -0.498025 0.812997 -0.301675
-4.76718 -1.32959 0.584153 -0.0371703 0.813382 -0.580541
-3.99114 -0.529622 1.94268 -0.35461 0.926714 0.124308
-3.71565 -0.503107 1.86183 -0.112521 0.895886 -0.4298
-4.02201 -0.476976 1.99589 -0.458968 0.82977 -0.317536
-3.6314 -0.475016 1.88353 -0.316746 0.914023 -0.253445
-4.35562 -1.08638 1.08686 0.152017 0.789378 -0.594788
-5.26572 -1.79225 0.139949 -0.798514 0.433756 0.417409
-2.72073 0.470013 2.87724 -0.256557 0.0291736 -0.966089
-2.72159 0.362139 2.94608 -0.57693 0.72263 -0.380733
-3.10798 0.216854 2.88662 -0.421688 -0.559501 -0.713539
-5.12337 -1.5183 0.077331 -0.692451 0.464763 0.551822
-5.43714 -1.7872 -0.127648 0.454752 -0.726104 0.515725
-2.72381 0.446053 2.88877 -0.809698 0.152751 0.566618
-3.28855 -0.146681 2.31321 -0.200326 0.894669 -0.399295
-3.57023 -0.433586 1.91824 -0.253152 0.942237 -0.219325
-5.33022 -1.64067 -0.0222438 0.454752 -0.726104 0.515725
-3.6686 -0.516839 1.75949 -0.104539 0.951426 -0.289586
-2.59958 0.444111 3.08116 0.224626 -0.147918 -0.963153
-3.25422 0.34829 3.23462 -0.700917 0.505483 -0.503191
-4.19178 -0.883127 1.41193 0.940923 -0.159637 0.29863
-4.47398 0.0898185 2.23229 0.32985 0.877879 0.347171
-3.13206 0.249019 2.79319 -0.96331 -0.00953579 0.26822
-4.32788 -0.943127 1.27003 -0.777191 -0.0778655 0.624429
-2.67143 0.472813 2.93559 -0.274472 0.0779567 -0.95843
-4.44355 -0.775965 1.72978 -0.682119 0.714939 0.153543
