ply
format ascii 1.0
element vertex 881
property float x
property float y
property float z
property float nx
property float ny
property float nz
end_header
1.15196 0.4151 -0.206946 0.193823 -0.980253 0.0391951
1.56208 0.440479 0.357413 -0.994172 0.045391 0.0977791
1.22972 0.411574 0.392845 0.0382018 -0.935977 0.349981
1.59593 0.447639 0.375836 0.255091 -0.82405 -0.505836
1.1762 0.427964 -0.232491 0.0867537 -0.986524 -0.138727
1.15009 0.393399 0.282532 0.0438488 -0.989711 -0.136194
1.16227 0.419039 0.444197 0.0170069 -0.978499 0.205547
1.20441 0.432955 0.983862 -0.137616 -0.988115 -0.068491
1.59866 0.474445 0.00197454 -0.75721 -0.479954 0.443033
3.28218 1.34922 3.19379 0.123813 -0.991569 -0.0382233
1.62373 0.411985 0.451947 -0.435978 -0.886188 0.156828
1.21809 0.429151 -0.288573 -0.420311 0.140863 -0.89638
1.22018 0.430274 -0.292701 -0.464694 0.325905 -0.823314
1.14048 0.436544 -0.368452 -0.00547644 -0.459883 -0.887962
1.13876 0.434133 -0.367429 -0.106455 -0.434098 0.894554
1.23093 0.433877 -0.294483 -0.352894 0.484371 -0.800531
1.23164 0.443497 0.193561 -0.274888 -0.949544 -0.151007
1.21201 0.414477 0.400263 0.0679144 -0.954105 0.291669
1.18245 0.444877 0.268945 0.0749554 -0.959576 -0.271286
1.0637 0.422569 -0.339102 -0.843677 -0.0778215 -0.53118
1.16558 0.443859 0.251738 0.2384 -0.963591 -0.12107
1.04477 0.440889 -0.334062 -0.0524795 -0.433149 0.899793
1.0399 0.421421 -0.353213 -0.210722 -0.795582 0.568019
1.08108 0.441518 0.15711 -0.0949111 -0.402982 -0.910273
1.02487 0.401791 -0.370954 0.233686 -0.735691 0.635728
1.00297 0.422163 -0.409465 -0.277307 -0.91568 0.290914
1.12786 0.406236 0.300222 0.184874 -0.97203 -0.144841
0.996274 0.416497 -0.405107 -0.277307 -0.91568 0.290914
1.01181 0.407699 -0.33945 0.187644 -0.981725 -0.0317298
1.29672 0.425228 -0.493764 -0.385141 0.899939 -0.204394
1.56447 0.445684 0.365885 -0.866912 -0.0182097 0.498129
1.60445 0.429291 0.35309 -0.38909 0.180602 -0.903323
1.56696 0.424859 0.352397 -0.639808 -0.5212 0.564797
1.26179 0.440188 0.480212 0.0845919 -0.992794 0.0848837
1.28735 0.457091 0.689538 -0.0199898 -0.99969 -0.0148125
1.60072 0.469382 0.0121408 -0.75721 -0.479954 0.443033
3.81711 1.38286 2.65133 -0.0997791 -0.991987 -0.0774947
2.88759 1.27186 1.58035 0.124594 -0.989035 0.0792832
2.96542 1.32565 1.79936 0.0801492 -0.990063 0.115545
3.25645 1.41532 2.50143 0.0370001 -0.998399 -0.0427758
3.13268 1.37255 2.32678 0.044328 -0.998962 0.0104447
3.23643 1.38697 2.72364 0.0231088 -0.998383 -0.0519367
1.52354 0.267291 0.287092 0.115292 0.436454 -0.892309
1.27737 0.423891 -0.502411 0.122557 -0.992427 0.00824977
2.72264 1.26723 0.95604 -0.864821 -0.0365543 -0.500748
2.18192 1.23975 0.299898 -0.202515 0.61418 -0.762739
3.1276 1.30856 1.5652 -0.48095 -0.744873 -0.46244
3.11591 1.52484 1.56322 -0.0948008 0.0224992 -0.995242
1.51772 0.447694 0.369721 -0.722866 0.626478 0.291531
3.12647 1.3008 1.50322 -0.48095 -0.744873 -0.46244
2.92094 1.29193 1.56615 0.0668113 -0.997526 -0.0218782
1.57949 0.351596 0.328645 0.138474 0.321881 -0.936599
2.04713 1.23015 -0.0583514 0.0734977 -0.990664 -0.114815
2.81662 1.20628 0.831265 0.0667228 -0.978657 0.194365
2.67937 1.2531 0.694677 0.189129 -0.981723 -0.0212132
2.25678 1.24128 0.212585 -0.997686 0.0556994 0.0389891
2.98668 1.30014 1.13367 -0.0286462 -0.98784 0.152815
2.6979 1.24716 0.805337 -0.199571 -0.979346 0.0324386
2.15579 1.25176 0.145884 0.0538049 -0.996348 0.0663017
2.70818 1.2372 0.870597 0.335126 -0.941891 0.0230489
2.69609 1.26288 0.861254 -0.0891949 -0.995404 0.0348498
2.22149 1.2298 0.276727 -0.619638 0.424911 -0.659924
2.02554 1.17815 0.123814 -0.699135 0.541145 0.467303
2.45178 1.24351 0.715248 0.235142 -0.971296 0.0359533
2.58928 1.25088 0.742317 -0.392581 -0.918956 -0.0374151
2.09717 1.22469 0.299925 0.0328725 -0.965403 0.258681
2.21131 1.26238 0.669881 0.366982 -0.911072 0.187811
2.20583 1.24359 0.737486 -0.19902 -0.979204 -0.0393811
2.14519 1.2566 0.679443 0.0605463 -0.796173 -0.602032
2.84885 1.27466 1.50463 0.0727368 -0.995445 -0.0616276
2.46275 1.25958 1.66437 -0.420182 -0.666861 -0.615422
2.46261 1.31174 1.73326 0.00790009 -0.602883 -0.79779
2.51356 1.31405 1.58963 -0.715229 0.635858 0.290057
2.36076 1.31417 1.67145 0.61523 -0.481773 -0.624009
1.8033 0.483687 0.775107 0.153313 -0.987786 -0.0278022
3.15138 1.27155 1.54422 -0.482916 -0.763237 -0.429257
3.23155 1.36989 2.95379 0.00923727 -0.997011 -0.0767026
2.63338 1.25799 0.608451 -0.107606 -0.991018 0.0793962
1.97691 1.12323 0.54671 -0.822725 0.400742 0.403149
2.2065 1.26141 -0.140332 0.444655 -0.892027 0.0810492
2.20564 1.22042 -0.128981 -0.972363 0.231876 -0.0272597
2.54064 1.28891 0.191909 -0.145589 -0.983031 -0.111601
2.92355 1.263 0.579076 0.0630129 -0.979551 0.191076
2.70617 1.27063 0.364747 0.0905363 -0.950719 0.29654
1.82096 1.18467 -0.475591 -0.313369 -0.94478 0.095869
3.06972 1.31127 0.727203 0.345468 -0.923279 -0.167952
2.41416 1.25693 0.0999736 -0.402339 0.762012 -0.507407
2.20295 1.24382 -0.107304 -0.790894 0.328979 0.516004
2.96639 0.381456 0.775179 -0.91911 0.360229 0.159598
2.56122 1.26945 0.253571 -0.241868 -0.965375 -0.0977258
1.95741 1.22013 -0.329906 0.2207 -0.917072 -0.332069
1.93173 1.22034 -0.351774 0.0527369 -0.933742 -0.35404
2.9704 0.366687 0.801689 -0.91911 0.360229 0.159598
2.45974 1.29167 0.16013 -0.0456992 -0.991036 0.125533
3.04121 1.29861 0.757744 0.343259 -0.937959 -0.049056
2.57666 1.26333 0.337522 -0.420744 -0.905378 0.0571445
2.58858 1.22657 0.371539 -0.111328 -0.903318 0.414274
2.40086 1.19326 0.188166 -0.699524 -0.63756 0.322775
2.89149 1.22683 0.719348 -0.36684 -0.898261 -0.241983
2.88767 1.33012 0.724498 -0.524911 -0.840426 -0.134729
2.55847 1.25866 0.371958 -0.111328 -0.903318 0.414274
2.21191 1.19137 0.065462 -0.747021 -0.544527 0.381378
2.18556 1.16757 0.0688245 -0.747021 -0.544527 0.381378
1.73018 1.19321 -0.391266 0.00447972 -0.995915 0.0901863
1.84512 1.19674 -0.246919 -0.857014 -0.514684 -0.0250422
2.01794 1.2091 -0.167328 0.144303 -0.93571 0.321907
2.10968 1.17875 -0.0633426 -0.23949 -0.96226 0.129229
2.84744 1.22767 0.731133 -0.537247 0.800564 0.265449
1.82999 1.2339 -0.219735 -0.615762 0.651793 0.442722
2.93007 1.20331 1.06023 0.162659 -0.97386 0.15855
2.63085 1.20796 0.727586 -0.308954 -0.950645 -0.0286726
1.80729 1.18852 -0.193075 -0.701243 0.667559 0.250247
1.84887 1.24127 -0.228195 -0.615762 0.651793 0.442722
3.09851 1.32564 1.43946 -0.48095 -0.744873 -0.46244
2.38217 1.21394 0.405573 -0.938978 -0.310327 -0.148381
1.79158 1.20576 -0.268423 -0.851025 0.524976 0.0125049
3.01296 1.3547 1.25579 -0.0423017 -0.997908 0.0488932
1.86521 1.19883 0.0297145 -0.5686 0.799282 -0.194532
1.88081 1.20016 0.0740868 -0.80561 0.578944 0.12576
1.88303 1.18896 0.10911 0.49708 -0.746133 -0.442941
1.90752 1.18179 0.149754 -0.569845 0.819652 -0.0587164
3.07072 1.31102 1.51292 -0.48095 -0.744873 -0.46244
2.85267 1.29915 1.53144 0.146884 -0.98849 0.0362183
3.63362 1.26189 2.63646 -0.0997791 -0.991987 -0.0774947
1.89398 1.24273 0.182477 0.0222608 -0.99912 0.0355593
1.92799 1.20757 0.267358 0.0464737 -0.995462 -0.0830377
2.25323 1.25154 0.802073 0.0579458 -0.954362 0.292977
1.86751 1.21658 0.0756458 -0.8401 0.388229 0.378827
1.9529 1.22282 0.364412 -0.34663 -0.886896 0.305389
1.94403 1.25062 0.365842 -0.34663 -0.886896 0.305389
1.96547 1.22942 0.408766 -0.130178 -0.991361 -0.0160305
1.98334 1.22658 0.488089 -0.767877 0.405222 0.496145
2.15081 1.24967 0.792972 0.394399 -0.915076 0.0841766
3.19556 1.2891 1.51544 -0.48095 -0.744873 -0.46244
2.04306 1.24258 0.699831 -0.578161 0.744857 -0.333043
1.96322 1.22624 0.144607 0.212247 -0.964665 0.156121
2.13292 1.35175 1.09817 0.261968 -0.939928 -0.218877
2.18544 1.2899 1.33013 0.170625 -0.985223 -0.0149246
2.34742 1.16428 1.72878 0.17105 -0.985209 -0.0102351
1.80279 0.594271 0.488351 -0.653814 0.728667 -0.203892
3.1347 1.23249 1.56591 -0.983345 -0.162647 -0.0811054
2.79379 1.17961 0.680091 0.0635315 -0.0860411 -0.994264
2.05689 1.25361 -0.1464 -0.487117 -0.848344 0.207437
2.9866 2.17324 2.63428 -0.855828 0.181938 0.484207
2.44361 1.24912 -0.174491 -0.488964 -0.738504 -0.464249
2.91626 1.16754 0.270255 -0.422848 -0.906156 0.00901417
2.42415 1.19302 -0.136922 -0.373251 -0.711237 -0.595673
1.95649 1.24778 -0.48974 0.0792558 -0.87881 0.470544
2.41204 1.22401 -0.107898 -0.895461 -0.40132 -0.192594
2.90713 1.24475 0.341543 -0.424846 -0.352935 0.833633
2.44489 1.2618 -0.0397774 0.0476223 -0.985406 0.163421
1.9458 1.24791 -0.461945 -0.0153262 -0.915218 0.402667
2.43276 1.21762 -0.0967862 -0.441457 -0.254421 0.860457
2.92564 1.25096 0.432936 -0.895965 0.431621 0.104645
3.05197 0.225962 0.817023 -0.848443 -0.160991 -0.504209
2.98396 0.34645 0.793048 -0.91911 0.360229 0.159598
2.98819 0.203081 0.811189 0.338676 0.174215 -0.924634
2.93981 0.32202 0.759266 -0.91911 0.360229 0.159598
2.94383 0.312917 0.800536 -0.91911 0.360229 0.159598
2.96954 0.292785 0.877899 -0.986732 0.0184014 0.161309
2.91823 0.349237 0.81852 -0.91911 0.360229 0.159598
2.91768 0.311822 0.815547 -0.965054 0.21134 0.154937
2.95947 1.2416 0.670449 -0.876898 0.0935791 -0.47148
2.95633 0.211643 0.905572 -0.856019 -0.350635 -0.37985
2.94627 0.248598 0.885036 -0.974657 -0.18906 0.119581
1.82764 1.23615 -0.307932 -0.522542 0.540284 -0.659578
2.96841 0.327658 0.881616 -0.951792 0.219687 0.214079
2.93212 0.37311 0.853512 -0.706868 0.595811 0.381246
1.75456 1.23542 -0.258415 0.0226317 -0.98009 -0.19726
3.21119 0.757835 1.5797 -0.913755 -0.0852593 0.39722
1.66961 1.229 -0.30437 0.218887 -0.965157 0.143387
3.15648 1.15295 1.59266 -0.965159 0.0355037 0.259243
1.86924 1.10038 -0.0798171 -0.741307 0.663471 0.101344
3.13241 1.20824 1.58879 -0.983345 -0.162647 -0.0811054
2.9009 1.26092 1.69718 0.124594 -0.989035 0.0792832
1.86309 1.25079 0.0303608 0.416081 -0.752236 0.510898
1.69732 1.25715 -0.186757 -0.685676 0.561077 -0.463725
3.5801 1.37446 2.72242 -0.0997791 -0.991987 -0.0774947
1.83192 1.2252 0.150304 -0.815714 -0.571481 -0.0895582
2.25315 1.28343 0.82329 0.100967 -0.962501 0.251789
1.92725 1.26296 0.356853 -0.34663 -0.886896 0.305389
2.35566 1.19277 0.379789 -0.008498 -0.727361 -0.686203
1.85048 1.27958 0.0992647 -0.727036 -0.628869 -0.275575
2.28346 1.30496 0.951436 0.0955867 -0.990509 0.0987669
1.9438 1.26851 0.41099 0.0195006 -0.995553 -0.0921616
1.94544 1.23065 0.253927 0.327349 -0.940859 -0.0873275
1.84162 1.25036 0.30691 -0.034122 -0.991145 0.128321
1.90058 1.2283 0.419202 0.263379 -0.941747 0.20915
1.86566 1.20591 0.367795 0.223931 -0.890988 -0.394963
3.04104 1.3626 2.33204 0.299628 -0.953807 -0.0218125
2.00487 1.28883 0.640744 -0.598638 -0.769676 -0.221882
2.04156 1.26051 0.742805 0.354294 -0.922752 0.151673
3.21641 1.41732 2.91776 0.00923727 -0.997011 -0.0767026
1.8372 1.35542 0.0218726 0.419087 -0.30733 -0.854351
3.00245 1.32133 2.80658 0.266585 -0.960665 -0.0778127
2.33365 1.34131 1.6173 -0.832466 -0.138914 -0.53638
2.25392 1.28153 1.49633 0.0172003 0.605872 -0.795376
2.24399 1.24169 1.49138 0.0172003 0.605872 -0.795376
2.44409 1.30552 1.91029 -0.0807045 -0.992195 0.0950532
2.11023 1.24934 1.24593 0.156958 -0.987488 0.015192
3.18646 1.2145 1.64258 -0.983345 -0.162647 -0.0811054
2.68942 1.21504 1.00723 -0.48022 0.858562 -0.179611
2.95112 1.35039 0.326361 -0.563837 0.405856 0.719283
2.75154 1.2482 0.332938 -0.0533931 -0.986795 0.152918
3.06572 1.19264 0.722496 0.368044 -0.929664 -0.0163687
2.80682 1.35084 0.781415 -0.707176 -0.45334 0.542572
2.69234 1.29273 -0.0939189 -0.18541 -0.513901 0.837573
2.47907 1.2092 -0.207689 -0.459658 -0.339223 0.820757
2.49404 1.21094 -0.192411 -0.272701 0.551076 -0.788638
2.4251 1.25438 -0.190739 -0.463636 -0.775284 -0.428925
3.13541 1.37073 0.383416 0.372934 -0.834573 -0.405473
2.48898 1.19077 -0.104063 -0.629718 0.000974522 0.776824
2.74579 1.23833 0.384893 -0.0422362 0.555537 -0.830418
2.83631 1.25253 0.344001 0.181137 -0.95686 0.227176
2.82538 1.27917 0.562648 -0.019519 -0.99163 0.127625
2.90459 1.29665 0.664326 -0.424233 -0.0813375 -0.901893
2.81199 1.24233 0.694579 0.110553 -0.527528 -0.842313
2.76944 1.29106 0.676559 0.244944 -0.517488 -0.819883
2.94766 0.193818 0.846239 0.338676 0.174216 -0.924634
2.85384 0.207823 0.796344 -0.896843 0.0881669 0.433473
1.70044 1.2247 -0.29125 0.098364 -0.993045 -0.0647068
2.12246 1.24771 0.278822 0.000822357 -0.995618 0.093515
3.23872 0.938263 1.72167 -0.864267 -0.115153 0.489675
1.86083 1.14881 -0.00401178 -0.637165 0.620918 -0.456597
2.31935 1.24287 0.751929 -0.165661 -0.959986 0.225795
2.89544 1.31298 1.77918 -0.0182653 -0.989511 0.143295
1.94751 1.23571 0.337548 -0.358297 -0.193481 -0.913339
3.50571 1.3469 2.72058 -0.0997791 -0.991987 -0.0774947
2.98166 1.34778 1.95544 -0.256035 -0.953452 0.159299
1.65496 1.23679 -0.218198 0.560093 -0.828291 0.0151787
2.91436 1.29701 1.59688 0.124594 -0.989035 0.0792832
3.17099 1.39295 2.64098 0.0527512 -0.997874 -0.0382711
2.08716 1.28933 0.917227 -0.240652 -0.970136 -0.0303744
1.93345 1.28249 0.64705 -0.0565009 -0.726224 -0.685133
1.96458 1.33637 0.575244 -0.365393 -0.917966 0.154355
1.93549 1.42464 0.853146 -0.895866 0.443477 -0.0274362
2.00901 1.37719 0.740551 -0.913043 -0.406938 -0.0274474
1.9911 1.36369 0.974502 -0.312454 -0.662019 -0.681252
1.96286 1.32441 0.97601 -0.216209 -0.635752 -0.740995
3.11345 1.07229 1.51102 -0.952846 0.0659062 0.296209
2.81487 1.24452 0.756352 -0.504704 0.861179 0.0603716
2.50496 1.37858 0.110444 -0.690062 0.71885 -0.0840811
2.53652 1.28072 0.438963 -0.0393564 -0.987924 0.149854
1.89207 1.14765 -0.506016 0.0596621 -0.888004 0.455949
2.17406 1.17935 -0.0739669 -0.371728 0.468922 -0.801206
2.43842 1.26375 0.238703 0.235058 -0.970936 0.0450583
2.30323 1.05646 0.439696 -0.0958361 -0.995354 -0.00928188
2.60203 1.14396 0.972429 -0.713656 0.660999 -0.231898
2.42342 1.22972 0.0482512 -0.207661 -0.720542 -0.661586
2.61009 1.20157 -0.208264 -0.0310807 -0.873879 -0.485149
2.67448 1.21337 -0.156467 -0.483317 0.859876 0.16437
2.65428 1.20923 -0.142061 -0.515988 0.791904 0.326564
2.43029 1.17426 -0.111122 -0.667487 -0.611977 0.4242
2.9108 1.15759 0.703839 0.117954 -0.936124 0.331297
2.85919 1.31897 1.66143 0.124594 -0.989035 0.0792832
2.93153 1.21272 0.527927 0.121644 -0.992566 0.00392478
2.28131 1.18366 -0.680801 0.219174 -0.974496 -0.0481659
2.2939 1.18191 -0.699297 0.219174 -0.974496 -0.048166
2.2659 1.19165 -0.689024 0.219174 -0.974496 -0.048166
2.26758 1.18521 -0.660593 0.219174 -0.974496 -0.048166
2.31613 1.21574 -0.659144 0.222364 -0.955453 -0.194072
2.80774 1.26506 -0.155372 0.297437 -0.943793 -0.144174
2.04197 1.1412 -0.619417 0.0624734 -0.998041 0.00331302
2.41989 1.16551 -0.0210492 -0.309955 -0.949697 -0.0447523
2.17578 1.14091 -0.69203 0.216806 -0.931643 0.291612
2.47794 1.15235 0.156664 -0.357299 -0.692691 -0.626511
2.50221 1.17018 -0.183311 0.128984 -0.986095 -0.104781
2.04697 1.14683 -0.592505 0.257396 -0.964263 -0.0628068
2.32329 1.16345 -0.516612 0.331603 -0.937226 0.107924
2.07694 1.15031 -0.662422 0.199308 -0.955803 0.216143
2.30877 1.10813 -0.510964 0.299201 -0.954183 -0.00356201
2.27512 1.14924 -0.534968 -0.0382699 -0.95423 -0.296614
2.02087 1.15444 -0.489515 -0.426985 -0.86811 0.253117
2.49565 1.1223 0.318276 0.270161 -0.885634 0.37771
2.46252 1.14466 0.209218 -0.231119 -0.957609 -0.171956
1.82284 1.14295 -0.285509 -0.00490969 -0.712715 -0.701436
2.38242 1.08334 -0.298978 -0.695105 -0.581769 -0.422343
1.87838 1.14632 -0.120195 -0.747939 0.611101 0.25912
2.62938 1.20395 -0.125166 -0.403082 -0.278629 -0.871717
1.88383 1.14135 -0.14244 -0.826722 0.484401 0.286158
2.56887 1.16434 -0.119646 0.165965 -0.908503 0.383508
2.69793 1.20412 0.203586 0.0276069 -0.999582 0.00860826
2.08963 1.16959 -0.23298 0.0971821 -0.984382 0.146794
2.4593 1.17545 -0.0242097 -0.763799 0.600683 -0.236201
2.14227 1.17447 -0.570458 0.467922 -0.88301 -0.0366366
1.99401 1.13945 -0.59436 0.0950726 -0.994748 0.0379037
2.36534 1.2076 -0.586207 0.178196 -0.868492 -0.462566
2.36685 1.16021 0.563029 -0.75611 0.589364 -0.284513
1.66895 1.1645 -0.235507 -0.402913 -0.826479 -0.393184
2.08097 1.17489 -0.559537 0.286949 -0.95704 0.0416449
1.88355 1.16555 -0.152112 -0.594492 0.117989 0.795398
1.9611 1.14083 -0.634596 0.0908741 -0.990064 0.107312
2.68532 1.23705 0.59624 0.289869 -0.918478 -0.269023
2.05895 1.14085 -0.58994 0.257396 -0.964263 -0.0628068
2.07552 1.14283 -0.560189 0.286949 -0.95704 0.0416449
2.947 0.284213 0.892398 -0.940522 -0.0223733 0.338995
2.35391 1.14747 0.0322383 -0.214009 -0.829078 0.516556
2.59256 1.17312 0.579183 -0.0820938 -0.99662 0.0029873
2.36746 1.13789 0.45203 -0.949884 0.264572 -0.166502
1.74654 1.14041 -0.233916 -0.0220612 -0.837044 -0.546691
1.67932 1.1347 -0.0856207 -0.555613 -0.831441 0.00100239
2.16301 1.15818 -0.271408 0.464346 -0.839494 -0.282191
2.62959 1.21666 0.292232 -0.0768392 -0.995919 0.0473467
1.65487 1.17121 -0.182264 -0.528251 -0.196009 -0.826154
2.10011 1.14868 -0.681206 0.301717 -0.926606 0.224428
1.88916 1.14262 -0.247548 -0.791844 -0.593985 0.142003
1.79447 1.13133 -0.321778 0.265653 -0.821874 -0.503937
2.17251 1.16873 0.205178 -0.326681 -0.925573 -0.191297
2.16413 1.14185 -0.12191 -0.61523 -0.0769408 -0.784584
1.69804 1.12807 -0.0754637 -0.555613 -0.831441 0.00100239
1.88941 1.1407 -0.520218 0.0128337 -0.902602 0.430285
2.44302 1.16098 -0.25522 -0.823785 0.33206 0.459472
1.82166 1.15349 -0.244828 -0.103028 -0.955286 0.277154
2.046 1.1598 -0.479073 0.324267 -0.93065 0.169531
1.7555 1.1496 -0.172354 -0.044324 -0.986351 -0.15858
2.03401 1.19278 0.177789 -0.737762 -0.605372 0.298717
2.75958 1.2096 0.0430847 0.304595 -0.888677 -0.342745
2.55897 1.18094 -0.0856229 -0.368744 -0.710805 -0.598985
2.02055 1.19381 -0.0281369 0.0539965 -0.978254 0.20026
1.89654 1.14414 -0.27752 0.16876 -0.835596 -0.522781
2.2768 1.15481 -0.0186337 -0.373593 -0.717325 -0.58811
2.3514 1.20205 0.659055 -0.0612688 -0.956927 0.283791
2.11509 1.13565 -0.550554 0.467922 -0.88301 -0.0366366
2.28078 1.16564 -0.139059 -0.805425 0.291227 0.516214
1.7018 1.14912 -0.234044 -0.260104 -0.867735 -0.423536
2.51049 1.16641 -0.500941 0.318613 -0.93724 -0.141659
2.50088 1.16398 -0.0412597 -0.490001 0.454776 -0.743692
2.47131 1.18082 -0.0947098 -0.626875 0.527388 0.573489
3.21516 0.804939 1.58846 -0.913755 -0.0852593 0.39722
2.55786 1.19808 -0.131063 0.0197721 -0.672019 -0.74027
3.15197 1.04548 1.58018 -0.901213 0.0149428 0.433119
1.64455 1.21776 -0.105944 -0.901876 0.424013 0.0826643
1.62795 1.24184 -0.119455 -0.622921 0.714477 -0.318577
3.15968 0.799015 1.55299 -0.913755 -0.0852593 0.39722
3.42644 0.204179 1.33695 -0.646763 -0.499049 0.576756
2.07842 1.14225 -0.512949 0.324267 -0.93065 0.169531
2.69831 1.21119 0.168248 -0.0217343 -0.999015 -0.0386899
2.13983 1.19537 -0.495206 0.453249 -0.85698 0.245257
1.94529 1.19279 -0.150917 0.257508 -0.886877 -0.383588
2.61498 1.27501 0.727664 -0.500116 -0.862156 -0.0810564
1.83903 1.13369 -0.198521 -0.0880859 -0.995551 -0.0334538
1.88538 1.19828 -0.115291 -0.63193 0.632202 0.448313
1.86684 1.12052 -0.050602 -0.815665 0.553763 -0.167442
2.92925 1.2905 0.55505 0.25259 -0.914934 0.314792
2.22425 1.17453 -0.125365 -0.670101 -0.0460832 -0.740838
1.86688 1.22789 -0.155165 0.400466 -0.545448 -0.736283
2.12305 1.18347 -0.56802 0.467922 -0.88301 -0.0366366
2.17159 1.20053 -0.596878 0.30125 -0.92232 0.242023
2.65929 1.25914 -0.789532 -0.512841 0.69476 0.504284
2.50107 1.23222 -0.824808 -0.000825843 -0.942144 -0.335208
2.6857 1.29623 -0.728324 -0.672808 0.625124 0.395663
2.34989 1.22969 -0.338182 -0.214987 -0.902743 0.372607
2.39706 1.23358 -0.381321 0.287118 -0.84436 0.452349
2.54634 1.25865 -0.880316 -0.512841 0.69476 0.504284
2.44053 1.27337 -0.603021 0.021147 -0.5806 -0.813914
2.68507 1.27682 -0.406307 -0.150987 0.259042 -0.953992
2.62968 1.28974 -0.746391 -0.512841 0.69476 0.504284
2.74114 1.34599 -0.428903 -0.827447 -0.0520131 -0.559129
2.17051 0.226722 -1.05084 -0.176129 -0.966296 0.18775
2.73887 1.17448 -0.427485 0.322862 -0.888686 -0.325574
2.72179 1.21362 -0.596884 -0.435817 0.863806 0.252791
2.71254 1.18726 -0.580809 0.146338 -0.988416 0.0402292
2.72385 1.1988 -0.554308 0.175237 -0.981418 -0.0781742
2.73699 1.19708 -0.511418 0.175237 -0.981418 -0.0781742
2.72482 1.18628 -0.48706 0.0685046 -0.997362 -0.0239829
2.73547 1.18296 -0.425509 -0.93184 -0.353935 0.0800285
2.679 1.19142 -0.423657 -0.172683 0.18037 0.968322
2.56344 1.20458 -0.0805811 -0.313703 0.561547 -0.765673
2.57721 1.20653 -0.779509 -0.512841 0.69476 0.504284
2.60639 1.1496 -0.7409 -0.132965 -0.956795 -0.25858
2.53668 1.22475 -0.61586 -0.118982 -0.871615 0.475532
2.62925 1.17344 -0.460355 -0.0829398 -0.903059 -0.421432
2.43493 1.23816 -0.44625 -0.672704 0.655364 -0.343463
2.62418 1.15149 -0.394065 -0.102914 -0.92734 -0.35979
2.65779 1.16792 -0.334415 0.0321404 -0.931772 -0.361618
2.5627 1.15518 -0.378032 0.0231215 -0.980218 0.196566
2.47585 1.15361 -0.424239 -0.385346 -0.896476 0.218721
2.74423 1.21472 -0.436564 -0.93184 -0.353935 0.0800285
2.66906 1.20561 -0.780134 -0.512841 0.69476 0.504284
2.63307 1.1624 -0.685235 -0.0133485 -0.997823 -0.0645914
2.41424 1.18337 -0.439779 -0.648233 -0.75834 0.0686591
2.86091 1.28324 -0.145679 -0.483276 0.721386 -0.496031
2.78534 1.14634 -0.244168 -0.81861 -0.529851 0.221666
2.43535 1.14631 -0.306781 -0.655988 0.402274 0.638635
2.40697 1.15275 -0.3291 0.131281 -0.406945 -0.90397
2.46457 1.1974 -0.58624 -0.281289 -0.431013 -0.857382
2.51159 1.17497 -0.608089 0.336521 -0.706914 0.622114
2.43756 1.18817 -0.547943 0.0918102 -0.994591 0.0485819
2.71171 1.2582 -0.214546 0.0983873 -0.956179 -0.275757
2.77299 1.2276 -0.152873 -0.285701 -0.891976 0.350361
2.59487 1.19419 -0.391507 0.271096 -0.961512 -0.0447325
2.51402 1.16138 -0.345855 0.306278 -0.920774 0.241598
2.40369 1.16466 -0.466372 -0.0569033 -0.998328 -0.0101737
2.53077 1.22929 -0.184527 -0.765886 0.444964 0.464139
2.41789 1.16248 -0.395199 -0.855028 -0.511227 -0.0870283
2.7247 1.11904 -0.379346 0.216949 -0.948674 -0.230111
2.57603 1.23499 -0.5062 0.0201249 -0.98723 -0.158028
2.57783 1.18616 -0.642423 -0.0323992 -0.992373 0.118937
2.44275 1.16956 -0.617275 -0.048328 -0.981692 0.184243
2.97586 1.22052 0.373693 -0.203937 -0.864154 0.460052
3.07704 1.33654 0.673823 0.311962 -0.920983 -0.233389
3.08415 1.32685 0.727 0.345468 -0.923279 -0.167952
2.92205 1.31188 0.416929 0.216124 -0.91855 -0.330994
2.49282 1.26543 -0.0599707 -0.431397 -0.358168 0.828017
2.98356 1.28674 0.473597 -0.565382 0.823368 -0.0490781
3.10379 1.28955 0.814934 0.343259 -0.937959 -0.049056
2.30206 1.24408 -0.169573 0.308203 -0.951191 -0.0157184
2.94596 1.19263 0.359864 -0.330319 -0.787795 0.519874
2.32208 1.23583 -0.0642702 -0.591594 0.737204 0.326416
2.22208 1.22113 -0.196139 0.295366 -0.955355 -0.00753012
2.77281 1.20257 -0.364324 -0.717608 -0.535439 -0.445359
2.52505 1.20542 -0.623743 -0.371318 0.0124894 -0.928422
2.61648 1.19461 -0.458968 0.291283 -0.923567 -0.249357
2.40207 1.21254 -0.615197 -0.373756 -0.602374 0.705303
2.75355 1.17107 -0.377902 -0.717608 -0.535439 -0.445359
2.45046 1.19494 -0.491521 -0.0286464 -0.985939 -0.164634
2.82187 1.25497 -0.12961 -0.483276 0.721386 -0.496031
2.44533 1.20417 -0.549335 -0.706445 0.577386 0.409342
2.79066 1.16237 -0.192667 -0.300255 -0.464255 0.833255
2.62035 1.16493 -0.118142 -0.435281 0.83955 -0.325094
2.55276 1.25353 -0.159959 0.242031 -0.969927 0.025728
2.38044 1.25491 -0.2877 0.0311943 -0.995262 0.0920865
2.32424 1.238 -0.283011 0.0851709 -0.996099 0.0230782
2.17351 1.23292 -0.230289 -0.0332089 -0.999406 -0.00919419
3.0114 1.28196 0.415369 -0.890054 -0.0356382 0.454459
2.75877 1.2286 0.200217 -0.33823 0.792816 -0.506995
2.96857 1.31307 0.591417 0.32607 -0.938945 0.109819
2.51048 1.21484 -0.571296 -0.0658878 -0.984814 -0.160627
2.44394 1.23038 -0.58795 -0.0517561 0.0187816 0.998483
2.50503 1.2299 -0.511294 0.0924108 -0.992611 0.0786424
2.73078 1.2724 -0.0952936 0.0590225 -0.942596 0.328679
2.62321 1.27015 -0.172658 -0.158222 -0.951454 -0.264008
2.55295 1.26749 -0.240356 0.115294 -0.96829 -0.221633
2.86104 1.23173 0.135488 -0.613696 0.789497 -0.00851182
2.51054 1.21767 -0.20177 -0.808111 0.573499 0.134374
2.58437 1.18245 0.0891324 0.277195 -0.650697 -0.706935
2.50432 1.11749 -0.102554 0.0718033 -0.99395 0.0831154
2.49637 1.24209 -0.311444 -0.604109 -0.702581 0.376075
2.34526 1.22818 -0.402476 0.00623225 -0.771622 0.636051
2.59462 1.25982 -0.0427438 -0.163072 -0.804004 0.571826
2.1885 1.23427 -0.346576 -0.0463495 -0.972187 -0.229573
2.83664 1.29376 0.232745 0.226801 -0.968097 0.106536
2.96882 1.25127 0.540558 -0.728217 0.684683 -0.030141
2.94203 1.29936 0.683925 -0.424233 -0.0813375 -0.901893
2.39001 1.2526 -0.0568794 -0.104088 -0.885033 0.453743
2.37178 1.23444 0.0959591 -0.257378 -0.965791 -0.0316982
2.05504 1.21453 0.216563 -0.85213 0.523142 -0.0140379
2.42445 1.26176 0.450811 0.415869 -0.874788 -0.248596
2.3146 1.29645 1.22775 -0.0158345 -0.901685 -0.432103
2.58185 1.29699 0.747476 -0.146816 -0.957581 -0.247958
2.21106 1.24645 -0.213391 0.23272 -0.964568 -0.124297
2.32826 1.2844 -0.34229 -0.0279545 -0.974872 0.221005
2.56819 1.25973 -0.0429128 0.13254 -0.587767 0.798099
2.56342 1.27966 -0.021798 0.0358366 -0.999284 -0.0121236
2.69641 1.28116 0.28933 0.385296 -0.895708 0.221933
2.18228 1.23869 -0.207371 -0.130955 -0.989018 -0.0685197
2.61014 1.24105 0.20514 -0.44782 -0.854517 -0.263171
2.87419 1.32245 -0.162504 0.297437 -0.943793 -0.144174
2.46604 1.25504 -0.0830769 -0.71665 -0.539326 -0.4422
2.97813 1.2926 0.810845 0.255432 -0.965263 -0.0549676
2.98625 1.31078 0.63535 0.358597 -0.928894 0.0925459
2.49663 1.21661 0.0832101 0.462002 -0.886822 0.0100329
2.17033 1.2365 -0.326143 0.343885 -0.938532 -0.0300249
2.26843 1.22901 -0.389929 -0.0247371 -0.998467 0.0495071
2.1639 1.26135 -0.385831 -0.144289 -0.863388 -0.483469
2.18466 1.25818 -0.307204 0.138698 -0.98304 -0.119978
2.19669 1.24392 -0.342472 0.0449594 -0.998725 -0.0229474
2.10978 1.22415 -0.302021 -0.388862 0.408144 0.825957
2.65122 1.29794 1.12911 0.00791332 -0.866889 0.498439
2.1541 1.23826 0.716603 -0.399056 -0.895019 0.199235
3.15678 1.2703 1.55347 -0.482916 -0.763237 -0.429257
3.16895 1.22355 1.50113 -0.448585 -0.486259 -0.749883
1.90913 1.21888 0.0697918 -0.708814 0.704596 -0.0335773
1.92821 1.20889 0.0706385 -0.708814 0.704596 -0.0335773
2.06925 1.21501 0.648047 0.356342 -0.927412 -0.1137
2.60609 1.26164 1.09535 0.00791332 -0.866889 0.498439
2.44895 1.21683 0.0497974 -0.238861 -0.768429 -0.593686
2.16451 1.24728 -0.24707 0.12765 -0.990903 -0.042634
2.09375 1.24757 -0.359389 -0.245173 -0.847815 -0.470213
2.0812 1.29253 -0.33151 -0.164817 -0.89046 -0.424166
1.89756 1.22008 -0.164884 -0.604315 0.407752 0.684501
2.221 1.25579 -0.347776 0.184684 -0.978177 -0.0951958
1.9403 1.20613 -0.0963614 -0.871072 0.373927 0.318454
2.97602 1.27155 0.799952 0.338805 -0.940505 -0.0257196
2.97337 1.28275 0.392131 -0.881351 -0.00211163 0.472457
3.09696 1.32695 0.803229 0.343259 -0.937959 -0.0490559
3.01463 1.28829 0.49713 -0.516966 0.856005 0.00155414
2.81594 1.28967 0.38544 0.152263 -0.849028 0.505932
2.90272 1.27992 0.382277 -0.302089 -0.866193 0.398061
2.8802 1.28416 0.327074 -0.523621 0.835903 0.164581
2.85691 1.26311 0.149569 -0.667457 -0.416869 -0.617026
2.79244 1.27557 0.39788 0.0516173 -0.836289 0.545853
2.70544 1.25975 -0.108794 0.252812 -0.880247 0.401562
2.59549 1.2561 -0.116623 -0.774263 0.514017 -0.369194
2.71785 1.24954 -0.214167 0.0983873 -0.956179 -0.275757
2.45663 1.27171 1.90328 0.0713302 -0.984138 0.162432
2.41025 1.23519 1.72757 -0.121709 0.0196215 -0.992372
2.8927 1.23944 0.780694 0.345478 -0.928058 -0.139119
2.18752 1.23395 1.22487 0.185892 -0.972498 -0.140328
2.40034 1.27224 1.73617 0.319447 -0.523484 -0.789885
2.32688 1.23924 1.69418 0.328349 -0.87508 -0.355558
2.24756 1.20424 1.33956 -0.436989 -0.889102 0.136155
2.29227 1.19907 1.49803 0.204442 0.434094 -0.877363
2.15555 1.21125 0.690431 -0.11693 -0.991596 -0.0553581
2.03648 1.20017 0.64189 -0.631725 -0.77493 -0.0202002
2.20328 1.23127 -0.207384 -0.130955 -0.989018 -0.0685197
2.02594 1.23732 -0.147787 0.232005 -0.96778 0.0978522
1.94057 1.21727 0.00660713 -0.0144632 -0.964976 0.261938
2.31334 1.25241 -0.0521594 -0.446383 -0.534168 0.717919
2.24203 1.22438 0.171839 0.00873366 -0.99994 -0.00667329
2.30592 1.17661 1.31822 -0.127109 -0.950417 -0.283816
2.94189 1.33574 1.07376 0.0182689 -0.985598 0.168113
2.86026 1.31684 0.0740961 -0.527046 0.659308 0.536223
2.17867 1.26224 0.834834 0.187926 -0.978486 -0.085145
2.85518 1.26991 0.686521 0.0301776 -0.574135 -0.818204
2.54229 1.25964 -0.233437 0.115294 -0.96829 -0.221633
2.71031 1.25594 -0.0770557 0.189271 -0.769138 0.610412
2.66565 1.23621 0.355268 0.0532158 -0.951044 0.304439
2.72439 1.31247 0.391172 0.0905363 -0.950719 0.29654
2.90996 1.25402 0.786532 0.468977 -0.840066 -0.27267
2.38733 1.23614 0.236186 -0.0318695 -0.977154 0.210129
2.51158 1.24183 -0.249911 0.0509845 -0.896418 -0.440268
2.16194 1.21862 -0.305047 -0.538192 0.830588 -0.143083
2.1161 1.2341 -0.260694 0.511076 -0.85282 -0.107238
2.78799 1.28635 1.13137 0.0744055 -0.91006 0.407743
2.05436 1.23673 -0.0511077 0.0734977 -0.990664 -0.114815
3.74359 2.34544 2.98681 -0.201487 0.0236336 -0.979206
2.48693 1.25723 0.0332546 0.42385 -0.888721 -0.174719
2.03776 1.24452 0.227591 -0.382836 0.452145 -0.805606
2.97344 1.21711 0.259496 -0.619137 -0.434003 0.654454
2.67044 1.23791 0.374957 0.0741626 -0.7763 0.625985
2.83627 1.26617 0.191334 0.362543 -0.929395 0.0691872
2.50293 1.22442 -0.0710958 -0.830717 -0.190305 0.523156
2.86575 1.26727 -0.0984746 0.250174 -0.96791 -0.0237289
2.91234 1.27405 0.0904638 -0.582241 0.747333 0.320139
2.39828 1.25724 -0.0940748 -0.708013 -0.698962 0.100845
2.04661 1.21828 0.635692 -0.631725 -0.77493 -0.0202002
2.03581 1.20476 0.504239 -0.639019 0.723483 0.261203
2.18617 1.23494 -0.170993 0.105545 -0.994357 -0.0107069
2.10126 1.20849 -0.311453 -0.108481 -0.669588 -0.734768
2.02216 1.20352 -0.206775 0.416594 -0.82722 0.377037
2.02387 1.20215 -0.20043 0.199848 -0.954786 0.220101
2.02885 1.2017 0.213288 -0.390545 -0.545991 0.741194
2.56326 1.30833 0.0728044 -0.180677 -0.865668 0.466878
2.63268 1.25624 0.117119 -0.16258 -0.937145 -0.308752
2.14327 1.27405 0.217428 0.065942 -0.980883 -0.183084
2.3691 1.20896 0.132373 -0.874474 -0.432938 -0.218769
2.41325 1.24339 -0.102178 -0.204929 -0.976361 0.0687201
2.20753 1.2296 -0.236144 -0.105973 -0.982102 -0.155708
2.80105 1.25943 -0.0983677 0.0884948 -0.995685 0.027928
2.29665 1.23098 -0.0825405 0.105006 -0.993276 -0.0487457
2.08626 1.22869 -0.160261 0.118916 -0.968179 0.220202
2.25926 1.25112 -0.0882576 0.0301333 -0.99933 -0.0207608
2.55281 1.26162 -0.255564 0.0845165 -0.990914 -0.104622
2.95251 1.28148 0.689283 -0.424233 -0.0813375 -0.901893
2.88707 1.28691 0.687474 -0.368976 -0.0829657 -0.925729
2.17826 1.20837 0.610813 0.1552 -0.963077 0.219992
2.40594 1.22855 0.545662 -0.595946 0.800508 -0.0635208
2.09586 1.2139 -0.0918215 -0.134901 -0.930361 -0.340925
2.6595 1.4278 0.929423 -0.335841 -0.922828 -0.18868
2.40362 1.25943 0.650993 0.222733 -0.850278 0.476883
2.70409 1.02327 0.0744945 -0.889201 -0.286688 0.356554
2.07015 1.2229 0.275815 -0.812741 -0.204924 0.545397
2.19688 1.23332 0.750464 0.152443 -0.95056 0.270551
2.8879 1.27688 0.811791 0.442494 -0.822313 -0.357772
2.81594 1.2323 0.361836 0.181136 -0.95686 0.227175
2.8506 1.27542 0.307277 0.0806633 -0.990393 -0.112319
2.28982 1.2039 -0.0274306 -0.0558041 -0.496944 -0.865987
2.04606 1.27595 0.146426 0.0785942 -0.986637 -0.142726
2.19196 1.22957 -0.147075 -0.490247 -0.87153 0.00967058
2.23562 1.22487 0.15838 0.00873366 -0.99994 -0.00667329
2.0818 1.25455 0.231146 -0.648041 0.625547 -0.434436
1.87347 1.17706 0.108685 -0.198322 -0.850336 -0.487439
2.81344 1.25239 0.159501 0.403768 -0.903374 0.144522
2.23241 1.10344 -0.166413 -0.984812 -0.141126 0.101143
2.47954 1.26897 -0.269262 0.0966733 -0.981035 -0.168001
2.63263 1.2469 1.13347 0.00791332 -0.866889 0.498439
2.78466 1.27077 -0.205601 -0.601153 -0.104729 0.792242
2.37808 1.53308 0.343916 -0.797423 0.482814 -0.361949
2.50641 1.28525 0.645621 -0.121675 -0.880207 0.458728
2.49983 1.27641 -0.0863898 -0.562447 0.826782 -0.0092204
2.43932 1.2553 -0.313713 0.0866083 -0.981616 0.170086
2.42884 1.24897 -0.356932 0.255252 -0.920338 0.296352
2.46383 1.28254 -0.231921 -0.0712604 -0.984491 -0.160311
2.33538 1.29648 -0.0358455 -0.764903 -0.59798 0.239466
2.3641 1.2745 -0.231175 0.154347 -0.986661 0.0517477
2.34486 1.27039 0.0281216 0.424009 -0.881872 -0.2062
2.14722 1.26839 0.341526 0.0423932 -0.607481 0.793202
2.2235 1.26302 -0.011805 0.0856321 -0.994242 0.0644133
2.26712 1.26356 -0.189189 0.0209725 -0.952404 0.304116
2.25253 1.25647 -0.0357642 -0.234491 -0.963078 -0.132265
2.19993 1.20626 0.268549 -0.567334 0.677978 -0.467416
2.46768 1.26206 -0.382015 -0.800722 0.594044 0.0771742
2.21628 1.24416 -0.191843 0.357621 -0.914945 0.187036
2.47187 1.25095 -0.372401 -0.749133 -0.427628 0.5059
2.07913 1.26713 0.18043 0.0831367 -0.972461 -0.217735
2.61678 1.28524 -0.330822 -0.578601 0.469903 -0.666642
2.18182 1.25362 0.0529599 -0.880823 -0.224838 -0.416652
2.24539 1.24982 -0.0671504 0.0544923 -0.991528 0.117907
2.25947 1.26136 -0.127752 -0.021328 -0.998534 -0.0497546
2.09469 1.2458 0.318474 0.0219735 -0.730315 0.682757
2.86175 1.34163 0.0687708 0.337671 -0.717261 -0.60952
2.0926 1.25106 0.198417 0.30444 -0.95023 -0.0661826
2.76295 1.33257 0.0319721 0.46181 -0.874748 -0.146791
2.07694 1.26406 0.167089 0.0831367 -0.972461 -0.217735
2.38791 1.38722 1.52746 0.0559983 -0.939073 0.339126
2.51162 1.28208 -0.0589079 -0.431397 -0.358168 0.828017
2.47997 1.25619 -0.0439233 0.0321944 -0.520825 0.853056
2.50679 1.25935 0.0437197 -0.556523 0.830504 -0.0233574
2.56191 1.2257 0.281907 -0.646841 -0.760253 -0.0601025
2.4981 1.26481 0.0147233 0.317788 -0.947843 -0.0245766
2.41613 1.33217 1.66824 -0.226714 -0.835027 -0.501329
2.74252 1.26908 0.96125 -0.992437 0.114278 0.0448255
2.72712 1.2346 0.0444479 0.125031 -0.979228 -0.159623
2.89574 1.26478 0.687673 -0.368976 -0.0829657 -0.925729
2.44057 1.24665 -0.147425 0.365342 -0.856796 -0.363903
2.40127 1.26664 -0.148717 -0.258689 -0.945416 -0.198163
2.38623 1.24425 -0.136204 -0.806955 -0.590497 0.0116654
2.46292 1.28606 -0.0660414 0.352646 -0.890297 0.288117
2.47832 1.26088 -0.0575133 0.352646 -0.890297 0.288117
2.64746 1.2936 0.428207 0.142593 -0.962144 0.232263
2.75889 1.25776 0.239458 0.299188 -0.928544 0.219755
2.49763 1.27619 -0.0418269 0.352646 -0.890297 0.288117
2.52649 1.2821 0.0713007 0.360782 -0.927061 0.101956
2.46659 1.26543 -0.252656 -0.234146 -0.95504 -0.181862
2.64284 1.26358 0.159361 -0.340003 -0.930346 0.137312
2.35134 1.25284 -0.229782 0.0787564 -0.995088 0.0599786
2.51916 1.27777 -0.176709 -0.0517779 -0.997193 -0.0540896
2.70093 1.30014 0.0436803 -0.0732576 -0.988308 -0.133719
2.39152 1.2663 -0.199792 0.0636132 -0.969653 -0.236064
2.13246 1.24988 0.0830486 0.0575833 -0.997652 0.0370658
2.38101 1.26075 -0.170864 -0.071294 -0.98835 -0.134465
2.50998 1.20544 -0.0615219 0.0148963 0.26477 -0.964197
2.49006 1.2707 -0.115489 -0.817729 -0.208113 0.536664
2.33675 1.26801 0.183059 -0.180872 -0.907619 -0.378832
2.04615 1.26345 0.147188 0.186348 -0.592616 -0.783633
1.9864 1.25161 0.159958 0.25875 -0.965445 -0.0310601
2.36976 1.28332 0.161307 -0.0117325 -0.999775 0.0176493
2.37603 1.29091 0.12895 0.113756 -0.984268 0.135191
2.23269 1.27742 0.22842 -0.997686 0.0556994 0.0389891
2.15649 1.25375 0.284002 -0.0150484 -0.617108 0.786734
2.29589 1.29918 -0.0462307 -0.387772 0.775991 -0.497464
2.36263 1.27861 -0.0659977 0.0568714 -0.812317 0.580437
2.19242 1.26831 0.129158 -0.309796 -0.950632 0.0180175
2.31792 1.2577 -0.103843 0.385956 -0.859265 -0.335711
2.14542 1.27217 0.313085 0.0423932 -0.607481 0.793202
2.09111 1.26648 0.214645 0.103525 -0.993204 -0.0531744
2.4381 1.25443 0.047189 -0.238861 -0.768429 -0.593686
2.47015 1.25012 0.0760452 0.269957 -0.88929 0.369171
2.33791 1.26469 -0.0704105 -0.64166 0.761108 -0.0948045
2.29029 1.24894 -0.169822 0.12349 -0.989942 0.0690289
2.3036 1.24964 -0.0916423 0.260347 -0.896005 -0.359716
1.94245 1.19426 -0.072178 0.411857 -0.909288 -0.0597352
2.40869 1.26851 -0.0639892 0.0187435 -0.837533 0.546065
2.31068 1.25673 -0.0722882 -0.253472 -0.644249 0.721592
2.23935 1.26486 0.662768 0.421893 -0.905643 0.0426212
2.19042 1.25693 0.867855 0.219221 -0.966521 -0.133338
2.67873 1.24872 0.639856 -0.473829 0.880454 -0.0169078
2.72632 1.25561 -0.203503 0.0983873 -0.956179 -0.275757
2.2065 1.26481 0.145991 -0.0753486 -0.884721 -0.45999
2.64386 1.24548 0.0628897 -0.0244384 -0.986233 -0.163545
2.48414 1.24367 -0.0790957 -0.852453 -0.457424 -0.253153
2.29966 1.24512 -0.00192742 0.274252 -0.957718 0.0869654
2.19682 1.23135 -0.0853548 -0.8119 0.494999 0.309507
2.09907 1.25853 0.19065 0.337842 -0.907351 -0.250155
2.41168 1.28333 0.0466824 -0.240122 -0.893766 -0.378847
2.34177 1.25694 -0.0543481 -0.0642703 -0.793143 0.605635
2.06042 1.25044 0.35536 0.0372434 -0.738393 0.673341
2.05134 1.26679 0.241347 -0.467289 0.361574 -0.806787
2.14926 1.21023 0.300393 -0.0987793 0.630186 -0.770136
2.17348 1.26576 0.070615 -0.51538 -0.83711 0.183383
2.3461 1.30721 0.037759 0.159131 -0.986627 -0.0352748
2.51659 1.34883 0.69505 -0.085348 -0.992404 -0.0885994
2.40237 1.27098 -0.0423827 0.0626501 -0.94668 0.316025
2.72627 1.3696 1.20188 0.144197 -0.93951 0.310689
2.24612 1.25624 0.289552 -0.643938 0.136823 -0.752744
2.15847 1.24447 0.120817 0.0937477 -0.994494 0.0468328
2.58667 1.27735 0.0419234 -0.155522 -0.984531 0.0806905
2.21559 1.25109 0.694505 0.232602 -0.942059 -0.241705
2.59157 1.28399 0.382299 0.0117082 -0.879039 0.476607
2.54215 1.26959 0.179961 -0.168681 -0.984135 0.0549953
2.55553 1.29965 0.241146 -0.173055 -0.974782 -0.140898
1.90145 1.23671 0.0918891 -0.0878996 0.157488 -0.983601
2.04834 1.23564 0.673307 -0.54346 -0.800346 0.253177
1.89412 1.23228 0.104355 -0.12024 -0.111189 -0.986498
1.9079 1.25794 0.0854867 -0.428203 0.0522648 -0.90217
2.05614 1.255 0.667818 -0.54346 -0.800346 0.253177
2.07289 1.23314 0.688542 -0.359329 0.83594 -0.414833
2.00927 1.22907 0.0835184 0.188724 -0.982015 0.00542303
1.96985 1.23705 0.252912 0.407071 -0.908248 -0.0968395
2.39118 1.27098 0.301548 -0.895186 0.427974 0.124419
1.93121 1.25518 0.0333065 -0.219898 -0.971964 -0.0832573
1.98459 1.25529 0.196788 0.309961 -0.949633 0.0460542
2.09576 1.26901 0.310961 0.206371 -0.837821 0.505438
1.89191 1.24014 0.372664 0.340137 -0.937905 0.0681187
1.93298 1.24788 0.379255 -0.34663 -0.886896 0.305389
1.98676 1.24687 0.216632 0.340454 -0.939482 -0.0382701
2.66502 1.2687 0.634782 -0.473829 0.880454 -0.0169078
2.39785 1.23687 1.53143 -0.793515 0.240526 0.559001
2.34227 1.2338 1.73239 -0.218063 0.832009 -0.510106
2.35477 1.22884 1.62259 -0.655117 -0.75541 -0.013301
2.25005 1.2635 1.515 0.0172003 0.605872 -0.795376
2.21235 1.25071 1.33074 -0.294106 -0.954748 -0.044249
2.0709 1.27496 1.57986 -0.198491 0.819511 -0.53759
2.26374 1.26117 1.47511 0.0172003 0.605872 -0.795376
2.12676 1.2066 1.81159 0.416924 -0.694238 -0.586692
2.14139 1.25092 1.23389 0.191914 -0.980227 0.0482178
2.18352 1.24769 0.679268 -0.0211006 -0.89344 -0.448687
2.35738 1.35444 1.83761 0.163896 -0.985752 0.0378231
2.19465 1.27061 1.48851 0.0413646 0.79091 -0.610532
2.16085 1.25891 0.754444 -0.276212 -0.910214 0.308573
2.27825 1.21033 1.45777 -0.0922353 -0.89882 0.428503
2.27886 1.25468 1.74288 0.11432 -0.984199 0.135213
2.20376 1.27766 0.81053 0.187926 -0.978486 -0.085145
2.13983 1.25534 1.49044 0.076421 -0.976778 0.200162
2.20752 1.28168 0.802967 0.171958 -0.984379 -0.03778
2.32117 1.2906 1.53458 -0.619779 -0.55579 0.55405
1.89875 1.20633 1.58825 -0.288375 0.527778 -0.798931
2.04223 1.24186 1.59523 -0.47311 -0.521523 0.710056
1.90384 1.1669 1.5764 -0.101385 0.589483 -0.801393
1.84822 1.22416 1.5785 -0.0478309 0.730486 -0.68125
2.00951 1.24185 1.47838 -0.37284 -0.908255 -0.189902
1.97561 1.21958 1.53525 -0.571672 0.603497 -0.555861
1.88092 1.2535 1.60866 -0.382954 0.343751 -0.857427
1.98192 1.29245 1.61335 -0.0672593 -0.966801 -0.246522
1.90795 1.23727 0.881816 -0.0747032 -0.995041 -0.0656754
1.90556 1.24766 0.883761 -0.0747032 -0.995041 -0.0656754
1.77867 1.23139 0.910199 -0.0201731 -0.984319 -0.175242
1.83979 1.24352 0.904152 -0.0235982 -0.98039 -0.195651
1.92276 1.2474 0.842212 -0.0388863 -0.98539 -0.165812
2.00572 1.2451 0.810548 0.0618613 -0.997865 0.0209584
2.00688 1.24667 0.817464 0.0616652 -0.998049 0.00976294
2.17626 1.20749 1.90525 0.544129 -0.837027 -0.0575275
1.95695 1.22428 0.847502 0.07948 -0.994856 0.0628007
1.93328 1.23253 0.100842 0.552838 -0.762692 -0.335665
1.92138 1.24734 0.833796 -0.0388863 -0.98539 -0.165812
2.4319 1.36596 2.0972 0.316934 -0.940972 0.118851
2.04642 1.25808 0.567298 -0.650275 -0.703409 0.28698
2.02087 1.26539 0.261355 0.10825 -0.877757 -0.466718
1.93581 1.25972 1.08871 -0.0415231 -0.977809 -0.205343
1.94365 1.23637 0.376912 -0.34663 -0.886896 0.305389
1.87994 1.2277 0.75648 -0.0221657 -0.998198 -0.0557668
1.86117 1.28445 1.09433 0.174314 -0.982605 -0.0640481
2.01962 1.24837 1.05452 -0.148665 -0.988784 -0.0143111
2.0361 1.26909 0.981749 -0.263154 -0.871568 -0.413666
1.96358 1.27029 1.30491 -0.00792915 -0.99785 0.0650637
2.13459 1.23073 1.39453 -0.116544 -0.993118 -0.0115855
1.92262 1.28876 1.06012 0.128283 -0.925696 -0.355852
1.94475 1.25128 1.42396 -0.756965 0.608809 0.237392
1.96214 1.26005 1.04061 -0.0438251 -0.984058 0.172365
1.81381 1.22268 1.01072 0.173861 -0.981501 0.0801818
1.84931 1.23617 0.262221 -0.0547545 -0.99768 -0.0404425
1.89369 1.23917 1.25964 -0.21978 -0.972928 0.0714732
2.40596 1.27554 0.321526 -0.801765 0.586017 0.117293
2.2902 1.28524 0.112549 0.154727 -0.980821 -0.118536
2.15744 1.26827 0.760363 -0.276212 -0.910214 0.308573
2.15816 1.23635 0.129023 0.127305 -0.991848 -0.00559951
2.03116 1.27393 0.243053 0.0343476 -0.96142 0.272931
1.94438 1.14005 1.51355 -0.294519 -0.473599 -0.830038
2.10709 1.25014 0.648001 -0.134891 -0.547213 0.826052
2.1293 1.27247 0.69831 -0.121528 -0.959088 0.255696
3.22768 1.32062 2.91618 0.00923727 -0.997011 -0.0767026
2.05229 1.24876 0.252124 -0.750891 -0.653389 -0.0961552
1.83936 1.2487 0.187345 -0.376897 -0.917381 -0.127907
2.17307 1.27714 0.326523 0.0959175 -0.725488 0.681518
1.88779 1.25452 0.645868 0.00670027 -0.840689 -0.541477
2.4246 1.22259 1.75091 -0.12171 0.0196232 -0.992372
2.77301 1.27419 3.61002 0.229156 -0.973157 -0.0212751
1.91391 1.1194 1.48616 -0.521314 -0.416837 -0.744633
1.59278 1.19926 1.67949 -0.617862 0.715412 -0.326239
1.60372 1.15254 1.6605 -0.617862 0.715413 -0.326238
2.0621 1.15039 1.51187 0.389215 -0.902793 -0.182965
1.68386 1.21547 1.62502 -0.58314 0.707247 -0.399686
1.58864 1.09756 1.63229 -0.617862 0.715412 -0.326239
2.04282 1.21679 1.51605 -0.791081 -0.57728 -0.202331
1.60776 1.23888 1.66578 -0.58314 0.707247 -0.399686
1.68338 1.23188 1.62417 -0.58314 0.707247 -0.399686
2.32731 1.25504 1.81761 -0.274724 -0.905989 0.322041
2.39249 1.23783 1.8881 -0.306765 -0.885563 0.348817
1.46522 1.09629 1.77138 -0.617862 0.715412 -0.326239
1.72215 1.21526 0.925254 0.138207 -0.876244 0.461622
1.78825 1.23322 0.917388 0.00855465 -0.989389 -0.14504
1.65406 1.20474 0.92956 0.108677 -0.97012 0.216924
1.8425 1.23563 0.906519 -0.0235982 -0.98039 -0.195651
1.60185 1.19345 1.43322 0.0262273 -0.989204 -0.14418
1.66505 1.24422 0.95952 0.0475835 -0.992503 -0.112579
1.62016 1.19922 1.53664 0.403012 -0.894368 -0.19413
1.56066 1.22619 1.39211 -0.0322542 -0.996202 -0.0808722
1.55274 1.23883 1.43665 -0.0428701 -0.980876 -0.189851
1.73617 1.18263 0.742579 0.166644 -0.970649 0.173408
1.66243 1.19125 0.659253 0.573509 -0.817651 -0.0503429
1.75557 1.21404 0.726856 0.202995 -0.972239 -0.116376
1.64049 1.17905 0.708783 0.573509 -0.817651 -0.0503429
1.67637 1.19947 0.735773 0.419173 -0.885979 0.198329
1.75131 1.21895 0.769413 0.143727 -0.956381 0.254317
1.69633 1.19813 0.771118 0.419173 -0.885979 0.198328
1.69158 1.21865 0.760911 0.419173 -0.885979 0.198328
1.75482 1.22857 0.786553 0.144259 -0.974802 0.17015
1.60515 1.21414 0.918833 0.127113 -0.980754 0.1482
1.85966 1.24897 0.859084 0.0240181 -0.992428 -0.120454
1.68449 1.21293 0.392577 0.0335305 -0.999411 -0.00736787
1.8421 1.22366 0.726273 0.20544 -0.952307 -0.225623
1.69959 1.24522 0.521282 0.364888 -0.9275 -0.0812441
1.71663 1.22247 0.528808 0.364888 -0.9275 -0.0812441
1.67158 1.25379 0.932092 0.0475835 -0.992503 -0.112579
1.70156 1.21855 0.465766 0.0437129 -0.99826 -0.0395628
1.73824 1.23032 0.625689 0.337687 -0.923661 -0.181159
1.70204 1.23812 0.906163 0.0925032 -0.993165 0.0711806
1.7701 1.22856 0.231918 -0.243475 -0.969854 -0.0101901
2.06642 1.19353 1.58697 -0.167096 0.772693 -0.612392
2.00024 1.29852 1.52442 -0.151958 -0.97787 0.143802
1.7398 1.24437 0.889645 0.0732948 -0.97618 0.204206
1.52271 1.21534 1.21227 0.00963949 -0.998871 -0.0465107
2.30915 1.24065 1.62451 -0.145438 -0.985864 -0.0831829
2.27953 1.29152 1.81566 0.28191 -0.956568 0.0741859
2.12782 1.29778 1.60348 -0.414906 0.812629 -0.409251
1.99314 1.24603 0.85522 0.0232567 -0.993726 0.109398
2.04901 1.26296 0.206014 -0.111555 -0.992587 -0.0482371
2.22488 1.33756 1.66808 -0.05716 -0.935096 -0.349755
2.18964 1.23868 0.923679 0.156916 -0.98468 0.0760461
2.09897 1.32721 1.68571 0.336883 -0.889647 -0.308283
2.20841 1.2364 0.684696 0.232602 -0.942059 -0.241705
1.91821 1.23521 0.361953 0.340137 -0.937905 0.0681187
1.87693 1.24605 1.09199 0.174314 -0.982605 -0.0640481
2.01087 1.22555 0.76636 0.443259 -0.872059 0.207448
1.70904 1.25015 1.14349 0.0382735 -0.998981 -0.0239083
2.16905 1.25105 0.863819 0.219222 -0.966521 -0.133338
1.98356 1.24737 0.20585 0.178022 -0.984026 0.00121847
2.34566 1.26334 0.0220464 0.424009 -0.881872 -0.2062
1.63702 1.22435 1.1224 0.0587969 -0.998253 -0.00575432
1.88676 1.22705 0.867956 -0.0521141 -0.990885 -0.124218
1.95495 1.23337 0.95664 0.0838423 -0.973212 0.214077
1.76151 1.23614 0.00573355 -0.514804 -0.209109 0.831415
2.17893 1.23348 1.49614 0.0413646 0.79091 -0.610532
1.99991 1.21921 1.17743 0.0935031 -0.97984 -0.176552
2.13602 1.28229 0.149882 0.104825 -0.957128 0.270033
2.11334 1.23417 1.43819 0.153618 -0.866518 -0.47492
2.17139 1.25076 0.785044 0.0886016 -0.952027 0.292908
2.76177 1.24485 2.91653 0.25988 -0.961503 -0.0892961
2.06408 1.2487 0.0137349 0.122492 -0.961546 0.245815
1.74869 1.20899 1.4948 0.138125 -0.989912 0.0315619
2.35089 1.27228 0.19744 -0.063218 -0.948889 -0.309213
2.17647 1.29485 1.55134 -0.161422 0.860439 -0.48331
1.83515 1.26131 0.670335 0.180406 -0.967302 -0.178274
1.90788 1.25499 1.05784 0.234786 -0.971707 -0.0256976
2.1557 1.26671 0.0762239 0.0937477 -0.994494 0.0468328
2.31892 1.27803 1.2202 -0.0158345 -0.901685 -0.432103
1.74145 1.24454 0.00503605 -0.528837 -0.216233 0.820716
2.02746 1.27218 1.08696 -0.0850323 -0.983432 -0.1601
2.04905 1.25285 1.03986 -0.0408187 -0.994353 0.0979638
2.26562 1.27409 0.115124 0.0614755 -0.987597 -0.144476
2.03263 1.26561 0.245942 -0.0720367 -0.735398 0.673795
2.02256 1.22215 1.1651 0.0935031 -0.97984 -0.176552
1.68552 1.21352 1.28367 0.0126825 -0.992128 -0.12458
2.20921 1.24177 1.72354 -0.174725 -0.951998 -0.251336
2.22755 1.25608 0.265934 -0.14744 -0.984747 -0.0923851
1.83373 1.25475 0.673295 0.235744 -0.934695 -0.266028
2.79266 1.25805 2.85842 0.25988 -0.961503 -0.0892961
1.61902 1.22489 1.33061 -0.0795634 -0.994592 -0.0667581
2.05509 1.26278 1.43352 -0.243248 -0.859179 -0.450159
2.46669 1.274 0.163613 -0.0456992 -0.991036 0.125533
2.27752 1.28995 1.17808 0.0681445 -0.921517 -0.382312
1.9993 1.25562 0.326433 0.14809 -0.966401 -0.210089
2.03081 1.24256 1.2601 0.00152025 -0.990287 0.13903
2.10548 1.2461 1.12603 0.468727 -0.815437 -0.339642
1.92348 1.25613 0.984009 0.328979 -0.940774 0.0819532
1.57945 1.24369 1.24247 0.00963949 -0.998871 -0.0465107
2.29376 1.25916 0.0359386 0.136268 -0.939026 0.315691
1.96213 1.2551 1.16865 0.0878771 -0.984672 -0.150663
1.99294 1.28273 1.09918 -0.229195 -0.957617 -0.174467
2.47973 1.27404 0.116408 0.156378 -0.949117 0.273355
2.0153 1.26668 1.01065 -0.116821 -0.989406 0.0861929
2.19583 1.26175 0.188931 -0.364317 -0.906044 0.215306
2.17335 1.08215 1.79834 -0.570066 0.497799 -0.653621
2.00607 1.278 0.334584 0.14809 -0.966402 -0.210089
2.05973 1.28184 0.322127 -0.276388 -0.937927 0.209532
2.4287 1.25376 1.6959 0.00790017 -0.602884 -0.79779
2.63196 1.26019 0.516714 0.138177 -0.977597 -0.158782
1.58175 1.14287 1.63085 -0.617862 0.715412 -0.326239
1.75573 1.2201 1.60986 -0.0236588 -0.962268 0.271074
1.81733 1.20479 0.150373 -0.815714 -0.571481 -0.0895582
