ply
format ascii 1.0
element vertex 841
property float x
property float y
property float z
property float nx
property float ny
property float nz
end_header
-0.728628 -0.123708 0.122234 -0.556992 0.510476 -0.655114
-3.55156 -1.69446 0.760478 -0.321068 0.118607 -0.9396
-2.13916 -0.66379 0.585526 -0.202213 0.79651 -0.569809
-1.95079 -0.825385 0.438756 -0.300141 0.301814 -0.904889
-2.13464 -0.583121 0.580246 -0.532276 0.492439 -0.688612
-1.86743 -0.832062 0.401845 -0.375528 0.52142 -0.766224
-2.92605 -1.40061 0.700184 -0.170632 0.0097369 -0.985287
-4.2251 -2.04176 1.05312 -0.431194 0.895382 0.11119
-0.53525 -0.0169893 -0.118563 -0.738166 -0.507763 -0.444171
-0.501949 -0.0355176 0.00360532 -0.66886 0.439445 -0.599595
-0.863111 0.0118124 0.206732 -0.757915 -0.618401 0.207716
-4.13113 -1.98332 0.758182 -0.268325 0.955378 0.123513
-4.51394 -2.1391 0.963043 0.639305 -0.297087 0.709245
-0.532318 -0.0222949 -0.0924887 -0.368283 0.831156 0.41659
-1.33661 -0.504788 0.256589 -0.357388 0.360789 -0.861455
-1.79598 -0.81175 0.367998 -0.302768 0.532339 -0.790536
-4.36255 -2.02959 0.86765 0.639305 -0.297087 0.709245
-1.96716 -0.922615 0.382591 -0.215753 0.424437 -0.879377
-0.323773 0.0482471 -0.029384 -0.33785 -0.828144 -0.447252
-0.793325 0.386971 0.325693 -0.845975 0.284025 -0.451282
-2.60609 -1.13708 0.655484 0.947216 -0.320569 -0.00420946
-2.36884 0.116068 0.38606 0.491926 0.607325 -0.623831
-0.932991 -0.0200568 0.140065 -0.663959 0.605233 0.439148
-2.79911 -1.20589 0.671643 -0.316676 0.716844 0.621169
-0.462136 0.00121482 -0.105668 -0.747575 -0.465432 -0.473819
-2.64201 -0.748993 0.81041 -0.467879 0.836388 -0.285561
-1.76875 -0.451711 0.520217 -0.558705 0.2595 -0.787723
-0.280352 -0.108131 -0.127368 0.121132 0.960842 -0.249217
-0.177174 -0.0379235 0.676392 -0.410348 0.487904 0.770431
-0.35492 -0.086329 -0.0802962 -0.505258 0.26893 -0.819994
-0.351508 -0.112631 -0.100592 -0.457754 0.406662 -0.790625
-0.363184 -0.0882181 -0.0780183 -0.505258 0.26893 -0.819994
-0.322805 -0.0833388 -0.0972692 -0.505258 0.26893 -0.819994
-0.34493 -0.0707005 -0.0880459 -0.502559 0.371533 -0.780639
-0.323157 -0.0601163 -0.101769 -0.502559 0.371533 -0.780639
-0.241694 -0.139847 0.724887 -0.393054 -0.242895 -0.886854
-0.642624 0.286823 0.242997 -0.580735 0.810103 -0.0804994
-1.75166 0.164606 0.805751 -0.553235 0.683968 -0.475519
-0.908324 0.310728 -0.157106 -0.600587 0.625516 0.498021
-0.252981 0.157399 0.500684 -0.865557 0.0726941 0.495507
-0.269704 0.145298 0.459068 -0.991003 0.13206 -0.0217679
-0.978768 0.0554054 0.167338 0.038714 0.447788 0.893301
-0.848599 0.31577 0.347896 -0.342473 -0.680523 -0.647766
-0.570996 -0.0282341 -0.252723 -0.25362 0.953723 0.161523
-1.93172 -0.615432 0.497311 -0.367605 0.898414 0.240246
-1.70444 -0.57196 0.365999 -0.512145 0.29024 -0.808374
-1.77265 -0.444529 0.50379 -0.558705 0.2595 -0.787723
-2.40866 -0.680181 0.74102 -0.584448 0.714767 -0.384095
-2.3885 -0.595077 0.690666 -0.638756 0.699956 -0.319457
-4.38843 -0.119164 1.65986 0.457424 -0.559951 0.690809
-0.716698 0.385323 0.309027 -0.562477 0.465774 0.683136
-3.73522 -2.46554 0.388144 -0.557717 0.487437 -0.671832
-2.13147 -0.82161 0.461064 0.0473381 0.434477 0.899438
-2.02886 -0.836445 0.108311 -0.24588 0.501636 -0.8294
-0.47303 0.0396187 -0.354581 -0.0848792 0.843463 0.530439
-3.58795 -1.60802 0.82157 -0.509423 0.326681 -0.796095
-0.641769 -0.0794277 0.100011 -0.394171 0.915022 0.0858175
-1.57936 -0.328345 0.415633 -0.464964 0.168104 -0.869223
-4.45991 0.0914735 1.79828 -0.281901 0.839867 -0.463847
-1.04048 0.0827659 0.179388 0.0937008 0.871838 0.480748
-4.68173 -0.0212237 1.95059 0.438218 -0.684607 0.582476
-2.70245 -1.01824 0.410898 -0.332019 0.517799 0.788447
-2.09779 -0.622528 0.39631 -0.592283 0.468969 -0.655186
-1.02097 -0.0342215 0.155791 -0.355019 -0.0520674 0.933408
-1.42068 -0.542922 0.2939 -0.380775 0.265759 -0.885654
-0.857079 0.0750127 0.234133 -0.258557 0.345754 -0.901999
-0.518222 -0.0446403 0.0272477 -0.649852 0.371554 -0.663053
-0.931123 0.128377 0.176717 -0.206082 0.63578 0.74385
-0.371557 0.038397 -0.0224626 -0.686352 -0.719297 -0.107397
-0.321239 0.0533577 -0.0272741 -0.33785 -0.828144 -0.447252
-2.97207 -1.16297 0.504988 0.382463 0.528785 0.757699
-3.07191 -1.96357 0.241286 -0.404264 0.887087 0.222817
-3.56795 -2.70508 0.388747 0.908051 0.131128 -0.397806
-1.2377 0.0968658 -0.00933322 -0.113727 0.885371 0.45076
-3.66305 -2.76743 0.369084 0.797965 -0.249304 -0.548726
-0.461573 -0.119488 -0.0507547 -0.723585 0.309935 -0.616738
-0.634245 -0.0786716 -0.23427 -0.427533 0.769172 0.474963
-0.72521 -0.131678 0.104888 -0.556992 0.510476 -0.655114
-0.557971 -0.0294838 0.0680542 -0.504351 0.664993 -0.550831
-3.70829 -2.86583 0.219896 0.897088 0.381584 0.22277
-0.765235 -0.149979 0.118436 -0.556992 0.510476 -0.655114
-0.421441 -0.0110705 -0.266587 0.214756 0.890697 0.400673
-0.556268 -0.0270241 0.0809971 -0.504351 0.664993 -0.550831
-0.210365 -0.0967288 -0.215948 0.101199 0.714131 0.692659
-0.212099 -0.09464 -0.204386 -0.811062 -0.301629 0.501197
-0.181858 -0.104475 -0.173169 -0.379444 0.784489 -0.49051
-0.226815 -0.0621636 -0.252037 0.210127 0.809706 0.547926
-0.23673 -0.0762119 -0.129191 -0.423667 0.618402 -0.66188
-0.255744 -0.120589 -0.184342 0.273793 0.213863 0.93771
-0.270293 -0.119524 -0.174254 0.360928 0.413203 0.836059
-0.226348 -0.115363 -0.159089 -0.436623 0.738818 -0.513331
-0.357296 -0.09336 -0.0901053 -0.505258 0.26893 -0.819994
-0.317709 -0.0910272 -0.107043 -0.429065 0.229642 -0.873595
-0.34969 -0.0932419 -0.0887201 -0.505258 0.26893 -0.819994
-0.247465 -0.142816 -0.141844 -0.225014 0.937979 -0.263751
-0.983259 0.0761145 0.174444 0.184453 0.571948 0.799283
-2.17681 -0.492712 0.681717 -0.439975 0.286943 -0.850932
-1.60212 -0.296118 0.457604 -0.464964 0.168104 -0.869223
-0.800776 0.214477 0.127757 -0.481384 -0.528938 -0.698923
-2.45311 -0.767178 0.637427 -0.472342 0.855764 -0.211094
-0.976326 0.0983201 0.170472 -0.481698 0.46033 0.745696
-0.82092 0.171157 0.277926 -0.472641 -0.634133 -0.611952
-0.141852 -0.0450417 0.676873 -0.470182 0.823505 0.317439
-0.231678 0.0683212 0.540532 -0.945245 0.19422 0.262281
-0.381388 0.0954747 0.499313 0.0784274 0.796704 0.59926
-0.334566 -0.196674 0.767109 -0.141349 -0.589027 -0.795656
-0.162886 -0.125328 0.681742 -0.641287 0.402031 0.653546
-0.22891 0.10427 0.58217 -0.697779 0.49927 0.513648
-0.30572 -0.128362 -0.135325 -0.688763 0.584009 -0.42958
-0.311617 0.0896526 0.536864 -0.111484 -0.866871 -0.485907
-5.49441 -1.66202 1.76616 -0.394029 0.0852418 -0.915137
-0.17872 -0.150223 0.677723 -0.337702 -0.304939 -0.890488
-4.97062 -1.40179 1.52983 0.490988 -0.0432503 0.870092
-1.79227 -0.341193 0.48966 -0.201593 0.0294818 -0.979026
-1.1881 0.129128 -0.100685 -0.152717 0.874286 0.460763
-2.3203 -0.553911 0.720367 -0.327957 0.464411 -0.822658
-1.02688 0.120727 0.00816458 -0.499879 -0.836589 -0.224141
-0.927769 0.130552 0.159191 -0.104473 0.638211 0.76274
-1.02541 0.111383 0.0271325 -0.499879 -0.836589 -0.224141
-0.775773 0.207487 0.0978783 -0.415779 -0.645795 -0.640373
-2.22702 -0.548347 0.676852 -0.435312 0.510869 -0.741294
-2.10673 -0.441234 0.573967 -0.532276 0.492439 -0.688612
-1.0329 -0.0108389 0.108014 0.175082 0.025153 0.984233
-0.9762 0.0363367 0.275592 0.0744912 0.996889 -0.0257478
-1.67656 -0.310747 0.449673 -0.464964 0.168104 -0.869223
-0.782926 0.256773 0.0477484 -0.475801 -0.700625 -0.531731
-6.04738 -1.92413 1.85801 -0.132634 0.00599115 -0.991147
-0.885041 0.0457727 0.227095 -0.855398 -0.00515354 0.517946
-4.91725 -1.16923 1.53932 0.343167 0.0419888 0.938336
-2.22007 -0.0187483 0.417343 0.360282 0.910658 0.202237
-0.987302 -0.00364204 0.108654 -0.345521 0.478901 0.807013
-5.66071 -1.59991 1.75845 -0.168349 -0.228968 -0.958766
-2.42588 0.0794466 0.408861 0.491926 0.607325 -0.623831
-3.37025 -0.345799 0.758602 -0.331749 0.228967 -0.91516
-0.356802 0.0825735 -0.427064 0.174801 0.811151 0.558102
-6.46064 -0.137511 2.28401 -0.126608 0.584252 -0.801636
-2.37466 0.162459 1.02558 0.201982 0.956721 0.209495
-3.647 -2.49877 0.309003 0.831933 -0.427316 0.353962
-0.768473 0.170152 0.255955 -0.412606 -0.78063 -0.469438
-2.64182 -0.918685 0.380763 0.742252 -0.245611 -0.623489
-3.8443 -2.78373 0.319818 0.847642 0.382484 0.367706
-2.86963 -1.05382 0.430456 -0.286454 0.651915 0.702105
-0.848158 0.168647 0.286542 -0.70101 -0.0608098 -0.710554
-2.31586 0.038292 0.50958 0.834843 -0.541756 0.0976642
-2.00906 -0.514316 0.587635 -0.378684 0.360693 -0.852349
-0.827699 0.116837 0.23384 -0.666308 0.455193 -0.590621
-1.96046 -1.65193 0.0904137 -0.175116 0.193701 -0.965305
-1.93669 -1.58359 0.114103 -0.193933 0.181785 -0.964025
-0.316649 0.0297296 -0.0546871 -0.255028 -0.964824 0.0638355
-2.66132 -2.23458 0.217766 0.153751 -0.0332099 0.987551
-3.4663 -2.85092 0.304914 0.672774 0.216212 -0.70755
-3.57254 -3.01133 0.331225 0.501591 -0.263859 -0.823884
-3.68971 -3.25089 0.487257 0.0263279 0.34105 0.939676
-3.52644 -2.95619 0.367711 0.672774 0.216212 -0.70755
-3.33933 -2.41199 0.268918 0.379537 0.916465 -0.126662
-3.62844 -2.85525 0.418843 0.672774 0.216212 -0.70755
-3.65923 -2.83642 0.366286 0.600963 0.297102 -0.742007
-3.1561 -2.05544 0.379141 0.0528675 0.195145 0.979349
-0.338363 -0.107594 -0.102007 -0.505258 0.26893 -0.819994
-0.206874 -0.115849 0.71718 -0.433716 0.46375 0.772545
-2.85875 -1.11065 0.409894 -0.27234 0.670081 0.690524
-3.51968 -1.49905 0.694166 0.313801 0.0247355 0.949167
-0.211331 -0.0917102 -0.202157 -0.791971 -0.253279 0.555547
-0.12858 -0.08897 -0.206013 -0.275571 0.90835 -0.314581
-0.286709 -0.236215 -0.193432 0.0888635 0.273894 0.957646
-0.325551 -0.253334 -0.173455 0.296143 0.880519 0.370115
-0.257699 -0.200938 -0.217596 -0.563086 0.024654 0.826031
-0.142944 -0.0873973 -0.231752 -0.156282 0.984661 -0.0775742
-0.148243 -0.0818556 -0.207374 -0.119124 0.983686 -0.134798
-0.984058 0.0666387 0.184747 0.148722 0.485314 0.861599
-0.893943 0.0199173 0.184938 -0.378621 0.185039 0.906866
-1.02285 0.0997158 0.0940039 -0.497974 -0.866282 0.0397093
-1.16759 0.0586096 0.0438304 -0.220137 0.879195 0.422558
-0.953505 0.0457019 0.163713 0.364345 0.924628 0.110977
-1.02076 0.129828 -0.012537 -0.672507 0.735684 -0.0806432
-4.17846 -1.18735 1.49689 -0.220161 -0.00756082 -0.975434
-0.969754 0.0719664 0.106543 -0.656962 -0.53944 -0.526693
-0.421686 0.0440753 0.0352087 -0.69069 -0.450757 -0.565479
-0.197358 0.106453 0.611974 -0.241815 0.65379 0.716997
-1.07664 -0.0342864 0.150955 -0.0611511 0.356324 -0.932359
-0.716787 -0.102524 0.120977 -0.428062 0.457112 -0.779622
-3.57347 -2.36932 0.27545 -0.759574 0.630575 -0.159443
-2.29737 -0.517434 0.724127 -0.503208 0.197733 -0.841239
-4.31476 -1.05151 1.52347 -0.103005 -0.270628 -0.957157
-1.73573 -0.270515 0.478566 -0.464964 0.168104 -0.869223
-2.282 -0.00959522 0.392801 0.492703 -0.591107 0.63862
-0.873302 -0.0160473 0.206834 -0.738777 -0.34968 -0.576136
-2.4572 0.0384083 0.393637 0.508308 0.278013 -0.815066
-0.890571 0.0311308 0.206578 -0.825145 -0.102084 0.555621
-2.43831 -0.0243474 0.371925 0.508308 0.278013 -0.815066
-2.87409 -1.46078 0.150502 0.821953 0.342421 -0.455128
-4.51924 -3.53145 0.296365 -0.241183 0.263407 0.934049
-2.30695 0.0409029 0.508744 0.834843 -0.541756 0.0976642
-0.403987 0.0397736 0.0192547 -0.69069 -0.450757 -0.565479
-0.986927 -0.0188873 0.143311 -0.6609 0.656614 0.363413
-1.59668 -1.15563 0.0959486 -0.439352 0.313874 -0.841697
-3.44341 -2.47818 0.148085 0.0684926 0.2795 -0.9577
-1.92577 -1.45512 0.128013 -0.377357 0.313426 -0.871416
-1.91163 -1.37758 0.153326 -0.414512 0.349893 -0.840092
-3.57979 -2.52254 0.180295 0.680397 -0.234339 0.694367
-3.24552 -2.50267 0.428084 -0.864104 0.502727 0.0242851
-2.99445 -2.17679 0.287298 -0.0806659 0.149227 -0.985507
-2.97698 -2.01707 0.305005 0.0328018 0.0184915 -0.999291
-1.37392 0.0945053 0.00572262 -0.0991865 0.769693 0.630662
-0.181878 -0.0672122 0.681393 -0.596586 0.262155 0.758525
-2.07336 -1.57768 0.127944 -0.295166 0.380688 -0.87633
-2.96436 -1.94492 0.272399 0.284596 -0.0542986 -0.957108
-3.43113 -2.34416 0.210583 -0.0965071 0.663154 -0.742235
-1.74395 -1.25569 0.121026 -0.385269 0.324696 -0.863794
-3.08431 -2.32748 0.402923 0.77807 -0.281228 0.561709
-3.61924 -2.40355 0.186202 0.737985 -0.225104 0.636165
-3.3232 -2.64838 0.415129 -0.798279 0.534414 -0.277764
-0.186809 -0.0618115 0.642437 -0.482906 0.677119 0.555258
-0.124079 -0.139928 -0.23998 -0.981139 -0.0629901 0.182751
-1.66872 -1.19722 0.126567 -0.396599 0.335275 -0.854576
-1.6047 -1.05369 0.125184 0.53585 -0.026148 0.843908
-1.88614 -1.38294 0.147773 -0.414512 0.349893 -0.840092
-0.237712 -0.21837 -0.212713 -0.443264 -0.896242 0.0163366
-0.246388 -0.188725 -0.216219 -0.611989 0.521637 0.594445
-2.48367 -1.71206 0.299673 -0.373579 0.357111 -0.856102
-1.97959 -1.39673 0.200488 -0.465795 0.358831 -0.808873
-1.93667 -1.17705 0.266964 -0.444069 0.168675 -0.879972
-2.03806 -1.29501 0.260851 -0.571089 0.323925 -0.754274
-1.79355 -1.14323 0.190958 -0.38919 0.368176 -0.84438
-0.152559 -0.156014 -0.287008 -0.830273 0.160915 -0.533623
-0.128298 -0.158494 -0.263899 -0.978899 -0.204024 -0.01148
-0.122287 -0.164259 -0.251484 -0.949993 -0.295251 0.10169
-0.388478 -0.472666 -0.233884 -0.508827 0.313098 -0.801913
-0.138814 -0.193946 -0.303239 -0.00955463 0.962282 0.271887
-0.131232 -0.193584 -0.301385 0.069208 0.871128 0.486155
-0.32888 -0.33935 -0.256283 -0.506052 0.230854 -0.831034
-0.137757 -0.199863 -0.307834 -0.267539 0.880729 -0.390819
-0.179509 -0.21985 -0.281412 -0.65089 0.17591 -0.738511
-0.396426 -0.474975 -0.231987 -0.508827 0.313098 -0.801913
-0.287509 -0.367862 -0.277211 -0.285772 0.958273 0.00685851
-0.127515 -0.195206 -0.296463 0.069208 0.871128 0.486155
-0.10476 -0.217248 -0.26364 -0.990274 -0.08574 -0.109573
-0.163868 -0.213427 -0.30293 -0.568045 0.0638951 -0.820514
-0.140942 -0.197242 -0.293174 0.229312 0.962937 0.142016
-0.118701 -0.248949 -0.332677 -0.976104 0.198172 -0.0891532
-0.146517 -0.287977 -0.313097 0.0497585 0.930836 0.362034
-0.160814 -0.167291 -0.274378 -0.516281 0.0603659 -0.854289
-0.09867 -0.257739 -0.289445 -0.959918 -0.279831 0.0158757
-0.0946353 -0.271564 -0.291307 -0.81623 0.452026 -0.359778
-0.32421 -0.303944 -0.247965 -0.485728 0.370379 -0.791762
-0.119235 -0.233825 -0.310946 -0.877074 -0.273606 0.394818
-0.111481 -0.294799 -0.307798 -0.134836 0.953518 -0.269486
-0.129593 -0.37519 -0.325173 -0.597233 0.503414 -0.624409
-0.188814 -0.207245 -0.283374 -0.709867 0.352915 -0.609541
-0.110065 -0.343982 -0.314538 -0.683989 0.724806 -0.0825486
-0.130855 -0.29821 -0.366125 -0.853916 0.519202 -0.0354485
-0.104787 -0.230827 -0.274693 -0.979446 -0.179379 -0.0922432
-2.69307 -1.73568 0.334555 -0.156603 0.58746 -0.793956
-0.377755 -0.247712 -0.195845 0.212658 0.870799 -0.443266
-0.271716 -0.253297 -0.197688 -0.122816 0.31137 0.942319
-0.126748 -0.372793 -0.316734 -0.724876 0.404948 -0.55729
-0.323015 -0.266147 -0.23643 -0.316892 0.488755 -0.812833
-0.153132 -0.19437 -0.287104 -0.212338 0.410304 -0.886884
-0.131102 -0.175888 -0.269536 -0.390986 0.897743 0.202945
-0.339621 -0.324154 -0.246702 -0.457279 0.250626 -0.853277
-0.168068 -0.167175 -0.276832 -0.411119 -0.0679182 -0.909048
-2.30977 -1.49226 0.295148 -0.381993 0.301004 -0.873772
-0.193388 -0.170222 -0.267486 -0.645311 0.133676 -0.752133
-0.118139 -0.166171 -0.242842 -0.980631 0.19546 -0.0125991
-0.182202 -0.224753 -0.294831 -0.731431 -0.0550462 -0.67969
-3.3327 -2.10094 0.531402 0.702805 0.0639341 0.708503
-0.0924628 -0.342757 -0.303936 -0.537889 0.166447 -0.82642
-0.108511 -0.299459 -0.304764 -0.895433 0.140576 -0.42242
-0.185257 -0.16976 -0.271559 -0.647499 0.176166 -0.741425
-0.315818 -0.309367 -0.250249 -0.451459 0.383781 -0.805542
-3.16733 -2.22892 0.350963 0.767211 0.0250295 0.640906
-0.105657 -0.210368 -0.25786 -0.886954 -0.409995 -0.212645
-0.310194 -0.275746 -0.244649 -0.214748 0.568845 -0.793913
0.0974438 -0.426831 -0.442261 -0.355141 0.374142 -0.856675
-0.182904 -0.161876 -0.272683 0.294405 -0.131723 0.946559
-0.175212 -0.18091 -0.272469 -0.389441 0.45967 -0.798148
-0.119286 -0.210308 -0.294442 0.277417 0.958665 -0.0632538
-0.0926194 -0.266532 -0.281908 -0.780727 0.421253 -0.461531
-0.295168 -0.301813 -0.261294 -0.517194 0.249457 -0.818707
-0.302433 -0.310177 -0.262287 -0.356665 0.33234 -0.873121
-0.253875 -0.217511 -0.220142 -0.697313 -0.625557 0.349904
-0.121068 -0.230383 -0.311665 -0.0831268 -0.722039 0.68684
-3.87443 -4.47232 1.07429 -0.420932 0.420212 0.80389
-0.332735 -0.309385 -0.245726 -0.35442 0.363063 -0.861726
-0.177957 -0.194692 -0.286295 -0.529349 0.249298 -0.81095
-0.0993759 -0.240205 -0.272878 -0.966991 -0.0619314 -0.247171
-0.20085 -0.181519 -0.260479 -0.642351 0.155872 -0.750393
-5.35836 -4.86278 0.365432 -0.201139 0.252596 -0.946434
-0.140565 -0.141811 -0.267201 0.12375 0.306602 0.943759
-2.22594 -1.69998 0.144858 -0.437565 0.493313 -0.751783
-0.137293 -0.304623 -0.373218 -0.853916 0.519202 -0.0354485
-0.289922 -0.316664 -0.263295 -0.523378 0.279287 -0.805031
-0.292006 -0.329883 -0.271008 -0.50184 0.0814761 -0.861114
-0.32366 -0.29439 -0.244413 -0.485495 0.332704 -0.808457
-0.165196 -0.142165 -0.270568 0.15015 -0.0560938 0.987071
-0.262994 -0.201393 -0.215158 0.197103 -0.076016 0.977431
-6.75012 -6.31734 0.714825 -0.437285 0.460438 -0.772515
-0.373889 -0.486094 -0.235839 -0.572545 0.435259 -0.694796
-0.159012 -0.133918 -0.274033 9.17719e-05 0.741478 0.670978
-2.04464 -1.51416 0.205134 -0.337492 0.374189 -0.86376
-0.29983 -0.370704 -0.26635 -0.376753 0.198592 -0.904775
-0.330504 -0.369776 -0.261059 0.301421 -0.140761 0.943044
-0.302812 -0.179533 -0.196053 -0.442663 0.00153884 -0.896687
-0.320286 -0.180256 -0.187871 -0.554615 0.323147 -0.766797
-0.306953 -0.171891 -0.195853 -0.385984 0.268631 -0.882527
-2.10522 -1.63804 0.118742 -0.307295 0.387832 -0.868997
-0.348748 -0.252863 -0.17696 0.0106905 0.477666 0.878476
-0.279495 -0.212756 -0.212101 0.348336 0.0873352 0.933292
-0.371516 -0.452532 -0.223898 -0.368858 0.581878 -0.724819
-0.331149 -0.248763 -0.16987 0.296143 0.880519 0.370115
-0.332009 -0.338325 -0.256402 -0.506052 0.230854 -0.831034
-0.167401 -0.172781 -0.283483 -0.27031 0.944763 -0.185353
-0.192404 -0.219783 -0.28692 -0.65089 0.17591 -0.738511
-0.35369 -0.342681 -0.246463 -0.480539 0.287189 -0.828616
-0.263134 -0.205766 -0.221094 0.104317 -0.140337 0.984593
-0.28694 -0.206446 -0.208627 -0.407666 0.158832 -0.899211
-0.15372 -0.156072 -0.287556 -0.830273 0.160915 -0.533623
-0.322296 -0.326233 -0.253675 -0.51685 0.321057 -0.793592
-0.141885 -0.12772 -0.247846 -0.604097 -0.42215 0.675911
-0.175854 -0.14575 -0.270539 -0.363593 0.184842 -0.913036
-0.146701 -0.202338 -0.305583 -0.457763 0.802451 -0.382785
-0.355063 -0.328088 -0.239673 0.326282 -0.0222304 0.945011
-0.35664 -0.360938 -0.252485 -0.468115 0.279558 -0.838281
-0.242449 -0.217246 -0.199171 -0.682624 -0.0212593 0.730461
-0.125785 -0.287217 -0.323235 0.0497585 0.930836 0.362034
-0.35323 -0.282804 -0.225084 -0.408491 0.423694 -0.808467
-0.162655 -0.294528 -0.411843 -0.792678 -0.606944 -0.0572725
-0.39066 -0.188935 -0.155572 -0.492208 0.101903 -0.864492
-0.123348 -0.289877 -0.290873 -0.340118 0.871513 -0.353249
-0.148157 -0.31322 -0.383732 -0.956386 -0.225815 0.185292
-0.195198 -0.281876 -0.413414 -0.823064 -0.56748 -0.0230873
-0.129032 -0.388706 -0.329109 -0.3258 -0.397804 0.857675
-0.211163 -0.131242 -0.25101 -0.332702 0.658202 -0.675337
-0.134251 -0.197337 -0.308098 -0.193705 0.920682 0.338855
-0.155641 -0.110883 -0.27007 -0.606951 0.728026 0.318728
-0.199383 -0.148072 -0.25904 -0.445491 0.221763 -0.867386
-0.17726 -0.147016 -0.267923 -0.363593 0.184842 -0.913036
-0.285672 -0.178146 -0.203883 -0.405509 -0.0824162 -0.910368
-0.245081 -0.21189 -0.200465 -0.682624 -0.0212593 0.730461
-0.260746 -0.180663 -0.216193 -0.429407 -0.217033 -0.876645
-0.171113 -0.136786 -0.267617 -0.443846 0.0487542 -0.894776
-0.25954 -0.211273 -0.215692 -0.0850811 0.881253 0.464924
-0.262439 -0.161798 -0.216569 -0.429204 0.593537 -0.680806
-0.278586 -0.163708 -0.207123 -0.406421 0.0793562 -0.910233
-0.271068 -0.169058 -0.215646 -0.396382 0.185621 -0.899125
-0.26904 -0.154469 -0.207847 -0.398079 0.533257 -0.746438
-2.53863 -1.88275 0.237832 -0.401385 0.300886 -0.865076
-1.67618 -1.11107 0.157963 -0.428332 0.24247 -0.870483
-3.19182 -1.80469 0.636312 -0.47882 0.528017 -0.701377
-2.23342 -1.27686 0.373968 -0.369024 0.393624 -0.841951
-3.05151 -1.72707 0.610012 -0.653405 0.425138 -0.626355
-0.338614 -0.25368 -0.175408 -0.0632506 0.901674 0.427766
-0.335394 -0.229476 -0.183427 0.0747291 0.894815 0.440138
-0.36513 -0.209598 -0.165958 -0.377235 0.0352223 -0.925447
-0.348561 -0.239314 -0.176122 0.0106905 0.477666 0.878476
-0.335555 -0.249156 -0.156622 0.0106905 0.477666 0.878476
-0.333931 -0.187723 -0.178952 -0.391027 0.468509 -0.79221
-0.358717 -0.180967 -0.172876 -0.349835 0.00433127 -0.936801
-0.343107 -0.181738 -0.17733 -0.362183 0.0270496 -0.931714
-0.289907 -0.171088 -0.20377 -0.459216 -0.214598 -0.862014
-2.7011 -1.69309 0.442641 -0.156603 0.58746 -0.793956
-3.20148 -1.74853 0.664618 -0.208377 0.189053 -0.959603
-1.67443 -0.814476 0.0940041 0.969616 0.0576852 0.237732
-1.67906 -0.819305 0.113042 0.969616 0.0576852 0.237732
-3.94342 -2.08939 0.83682 0.145758 0.200011 0.968891
-1.73042 -0.952035 0.254436 0.952382 0.264288 0.152052
-1.93264 -1.07431 0.298723 -0.436701 0.163014 -0.884714
-1.92841 -1.21949 0.227608 -0.458054 0.332029 -0.824587
-1.67136 -0.86654 0.115837 0.294641 0.736282 0.609159
-1.2388 -0.564334 0.166198 -0.363262 0.330459 -0.871113
-1.76812 -0.816004 0.316458 -0.192534 0.741101 -0.643195
-2.68661 -1.54765 0.512839 -0.338438 0.565502 -0.752108
-1.90849 -0.841215 0.291399 -0.376483 0.706875 -0.598822
-3.31378 -2.39368 0.493009 -0.594852 0.748216 -0.29381
-2.8557 -1.69016 0.491562 -0.513144 0.503323 -0.695233
-0.378932 -0.462896 -0.228931 -0.323507 0.505258 -0.800036
-0.401427 -0.455201 -0.213588 -0.508827 0.313098 -0.801913
-0.283085 -0.365557 -0.273316 -0.155332 0.55365 0.818134
-0.353867 -0.243804 -0.180011 -0.500387 -0.776512 -0.382938
-0.372352 -0.228574 -0.165415 -0.246948 0.509459 -0.824299
-0.371781 -0.336506 -0.234861 0.285032 -0.108161 0.952396
-0.361384 -0.229594 -0.173458 0.26546 -0.0643591 0.961971
-0.411896 -0.222363 -0.146785 -0.52156 -0.0253067 -0.852839
-0.404699 -0.233516 -0.148958 -0.517556 -0.209656 -0.829566
-0.36422 -0.255345 -0.207176 -0.314116 -0.667312 0.675297
-0.418867 -0.215022 -0.147399 -0.404615 0.00179337 -0.914485
-0.283827 -0.36558 -0.264622 -0.155332 0.553648 0.818136
-0.368161 -0.36767 -0.244159 -0.374334 0.305461 -0.875538
-1.70348 -0.930698 0.264622 0.952382 0.264289 0.152053
-0.426657 -0.234484 -0.138171 -0.471763 -0.114337 -0.874281
-1.74848 -0.867879 0.182531 0.294642 0.736282 0.60916
-1.74392 -0.908883 0.175053 0.294642 0.736282 0.60916
-1.74948 -0.906749 0.202939 0.975382 0.0568942 0.213055
-2.06658 -0.936537 0.31285 -0.226855 0.57813 -0.783774
-2.43989 -1.69961 0.281455 -0.380385 0.346075 -0.857636
-1.67455 -0.963532 0.195741 0.845339 0.46577 0.261647
-2.04596 -1.03767 0.199861 0.965454 0.141715 0.218669
-1.68704 -0.883586 0.268419 0.952382 0.264288 0.152052
-0.382089 -0.234808 -0.162145 -0.486718 -0.109909 -0.866617
-0.314516 -0.324692 -0.261868 -0.379102 0.316903 -0.869399
-0.366956 -0.250755 -0.208888 -0.314116 -0.667312 0.675297
-0.348353 -0.456034 -0.236781 -0.609807 0.351082 -0.710547
-0.207478 -0.127229 -0.252156 -0.324674 0.698003 -0.638262
-0.157534 -0.107745 -0.272636 -0.606573 0.408803 -0.681872
-0.198164 -0.135084 -0.253251 -0.0516955 0.851796 -0.521317
-0.405524 -0.215843 -0.154869 -0.513793 0.00192675 -0.857912
-0.225599 -0.0854731 -0.218756 -0.260762 0.94631 0.191049
-0.361607 -0.342962 -0.239766 -0.46007 0.282469 -0.841752
-0.189396 -0.216628 -0.290257 -0.65089 0.175911 -0.738511
-0.400335 -0.240601 -0.143736 0.447374 0.385598 0.806951
-0.397844 -0.188312 -0.148529 -0.496769 0.12623 -0.858654
-0.439356 -0.238399 -0.127006 -0.427707 -0.183363 -0.885124
-0.331096 -0.341741 -0.257224 -0.476909 0.153134 -0.86551
-0.424416 -0.199546 -0.138011 -0.418338 0.0771271 -0.905011
-0.365658 -0.25818 -0.213005 -0.314116 -0.667311 0.675297
-0.35837 -0.308616 -0.241485 -0.404524 0.222047 -0.887161
-0.247437 -0.206726 -0.200178 -0.682624 -0.0212593 0.730461
-0.280417 -0.273094 -0.184615 0.000984037 0.938035 -0.34654
-0.359306 -0.325133 -0.239552 0.326282 -0.0222296 0.945011
-0.43805 -0.169277 -0.134522 -0.394106 0.0173218 -0.918902
-0.420379 -0.185548 -0.14037 -0.398438 0.101964 -0.91151
-0.161288 -0.0678656 -0.237963 -0.100976 0.910835 0.40023
-0.377669 -0.183928 -0.161696 -0.424563 -0.135238 -0.895241
-0.26472 -0.102389 -0.196014 0.396793 0.639691 0.658294
-0.265709 -0.14053 -0.202749 -0.372365 0.586054 -0.719642
-0.372239 -0.168503 -0.166265 -0.466465 -0.0613459 -0.88241
-0.277456 -0.34705 -0.269391 -0.534453 -0.103456 -0.838842
-4.1836 -2.09654 0.766601 -0.241388 0.0720229 -0.967752
-2.42297 -1.42916 0.399675 -0.488599 0.294246 -0.821395
-0.364514 -0.175132 -0.170023 0.26598 -0.0618228 0.961994
-0.469102 -0.188879 -0.118929 -0.421201 -0.098453 -0.901608
-0.331943 -0.164982 -0.188277 -0.391027 0.468509 -0.79221
-0.292084 -0.127705 -0.185219 0.195094 -0.155364 0.968401
-0.462712 -0.210786 -0.122873 -0.451189 -0.0751438 -0.889259
-0.401036 -0.180984 -0.153235 -0.507378 0.0991263 -0.856003
-0.406317 -0.163522 -0.142933 -0.443941 -0.0455088 -0.8949
-0.260852 -0.104332 -0.202375 -0.752124 0.0156499 -0.658835
-0.354241 -0.129983 -0.163206 -0.145977 0.555984 -0.818274
-0.276335 -0.116006 -0.190733 0.360928 0.413203 0.836059
-0.390607 -0.166109 -0.160614 -0.486176 -0.0308134 -0.873318
-0.435842 -0.187643 -0.133842 -0.428941 0.0921409 -0.898621
-0.276347 -0.106526 -0.188654 0.360928 0.413203 0.836059
-0.35007 -0.382594 -0.259648 -0.449838 0.0766729 -0.889813
-2.07951 -1.14268 0.406105 -0.493872 0.193665 -0.847694
-0.272528 -0.188251 -0.208898 0.301308 -0.0370177 0.952808
-2.22786 -1.48785 0.280164 -0.444199 0.254024 -0.859162
-1.97268 -1.62837 0.0953011 -0.175116 0.193701 -0.965305
-0.39485 -0.451379 -0.208091 -0.508827 0.313098 -0.801913
-0.163122 -0.170152 -0.284729 -0.52436 0.714596 -0.463032
-0.221405 -0.0869265 -0.217906 -0.260762 0.94631 0.191049
-0.299739 -0.105282 -0.184869 0.163653 0.181846 0.969613
-0.258939 -0.155028 -0.209018 -0.398079 0.533257 -0.746438
-3.71822 -2.00562 0.789105 0.125133 -0.227068 -0.965806
-3.08654 -2.04269 0.324026 -0.524027 0.701151 0.48351
-0.174818 -0.226517 -0.297264 -0.650288 -0.255579 -0.715405
-0.134587 -0.319185 -0.34918 -0.710218 -0.209048 0.672228
-0.343435 -0.320902 -0.241936 -0.388203 0.141681 -0.910618
-3.60616 -2.48324 0.41048 0.252704 0.136776 0.957827
-0.300355 -0.299362 -0.2601 -0.453684 0.231108 -0.860674
-2.85402 -1.58378 0.336666 0.101806 0.849725 0.517303
-2.50658 -1.68883 0.340045 -0.390545 0.383789 -0.836768
-2.03448 -1.50929 0.146356 -0.348176 0.400552 -0.847544
-0.473257 -0.216332 -0.12098 -0.409102 -0.0484078 -0.911204
-0.323519 -0.350263 -0.262157 -0.360704 0.0726696 -0.929845
-0.614116 -0.250676 -0.0423596 -0.374821 0.438147 -0.817029
-0.132378 -0.153711 -0.259706 -0.978899 -0.204024 -0.01148
-0.298301 -0.103952 -0.180227 0.163652 0.181846 0.969613
-0.329785 -0.165204 -0.165532 -0.377065 0.196068 -0.905196
-0.257048 -0.126215 -0.202762 -0.439665 -0.290029 0.850046
-0.154307 -0.232339 -0.312937 0.328721 0.279186 0.902218
-0.494885 -0.230914 -0.096468 -0.381376 -0.0175213 -0.924254
-0.451495 -0.187149 -0.128179 -0.4036 -0.025622 -0.914577
-0.299389 -0.143031 -0.186333 -0.433763 0.301793 -0.848982
-3.92494 -1.89344 0.646157 0.161881 -0.215178 -0.963064
-0.153778 -0.403147 -0.346694 -0.980018 -0.119902 0.158705
-0.276179 -0.298288 -0.273104 -0.631155 0.22163 -0.743319
-0.354747 0.058337 -0.0589051 -0.401686 -0.717668 -0.56886
-0.383411 0.0783171 -0.0123511 -0.584758 -0.613983 -0.530173
-0.340301 0.0551892 -0.0599423 0.198503 0.637181 0.744713
-0.779223 0.279408 0.0547179 -0.475801 -0.700625 -0.531731
-0.305703 0.0615635 -0.06546 -0.440418 -0.716044 -0.541584
-0.817789 0.341757 0.280915 -0.292109 -0.00580499 -0.956367
-0.805902 0.197978 0.228893 -0.370667 -0.647669 -0.66568
-0.768749 0.191081 0.219647 -0.401058 -0.81063 0.426651
-0.678038 0.281619 0.200247 -0.608001 0.766776 -0.205888
-0.329083 0.0745744 -0.0566206 -0.232346 0.411382 -0.881351
-3.08281 1.18356 2.45589 0.309111 0.101248 -0.945621
-0.728057 0.229634 0.198389 -0.626723 0.778691 0.0293219
-0.775642 0.287829 0.038584 -0.475801 -0.700625 -0.531731
-0.776914 0.358749 0.28448 -0.688388 -0.216767 -0.692195
-0.798728 0.396582 0.244305 -0.342238 0.090357 -0.935259
-0.817196 0.415534 0.279285 -0.727225 0.642402 -0.241793
-0.803877 0.451152 0.322093 -0.376143 -0.629616 -0.67978
-0.725465 0.417317 0.269551 -0.292542 -0.136246 -0.946497
-0.167958 0.0956323 0.618307 -0.812315 -0.0297624 0.58246
-0.187059 0.105638 0.561301 -0.583877 0.699016 0.412873
-2.32964 1.28361 2.17808 0.0216884 -0.890931 -0.45362
-3.54302 1.62198 1.92337 0.905337 -0.181123 -0.384135
-3.48808 1.45773 1.84068 0.947533 -0.126492 -0.293567
-2.49962 1.37298 2.2606 0.0216884 -0.890931 -0.45362
-3.17801 1.24151 2.53203 0.309111 0.101248 -0.945621
-2.39047 1.26824 2.25422 0.0216884 -0.890931 -0.45362
-0.794741 0.367928 0.283645 -0.253479 0.0770302 -0.964269
-0.79546 0.323187 0.287672 -0.421856 0.638935 0.643272
-0.860359 0.449206 0.341648 -0.162451 -0.559945 -0.812448
-0.773997 0.387457 0.260157 -0.83267 -0.498202 0.241777
-0.773827 0.43703 0.288228 -0.85665 0.291527 -0.425632
-0.67458 0.40716 0.251563 -0.19157 -0.706298 -0.681501
-0.653677 0.416099 0.22775 -0.823335 0.558517 -0.10089
-0.644883 0.439584 0.215531 -0.420523 -0.50297 -0.755104
-0.721609 0.426655 0.275961 -0.172733 -0.0348523 -0.984352
-0.934705 0.222161 0.289573 -0.473366 0.323203 -0.81943
-3.10872 1.13624 2.53704 0.309111 0.101248 -0.945621
-0.824016 0.586731 0.398042 -0.559685 0.503166 -0.658465
-0.598516 0.365081 0.191467 -0.406701 0.636641 0.655196
-0.187484 0.188671 -0.0827038 -0.776664 -0.58462 -0.234545
-0.594688 0.397124 0.224471 -0.964764 0.229412 -0.128844
-0.190029 0.195276 -0.072094 -0.776664 -0.58462 -0.234545
-0.21689 0.210338 -0.0559922 -0.71309 -0.615286 -0.336043
-0.189383 0.205847 -0.0420817 -0.691173 -0.616598 -0.376944
-0.213184 0.209639 -0.047368 -0.532188 -0.715775 -0.452153
-0.857952 0.355024 0.304231 -0.623821 0.69555 -0.35645
-1.209 0.865993 0.799484 -0.62846 -0.7313 0.265024
-1.20329 0.8851 0.912045 -0.561948 -0.768616 0.305686
-0.856132 0.209366 0.268946 -0.363689 -0.686287 -0.629873
-0.173681 0.0598888 0.607711 0.0323136 -0.223098 -0.97426
-0.740791 0.653038 0.368103 -0.529158 0.507351 -0.680138
-0.791566 0.257594 0.0776167 -0.433614 -0.595347 -0.676418
-1.23387 0.873826 0.796295 -0.62846 -0.7313 0.265024
-1.37173 1.01627 1.06342 -0.781836 0.475897 -0.402808
-1.36152 0.924914 0.968085 -0.682006 -0.731298 -0.00844752
-1.40146 1.15559 0.848626 0.241146 -0.0641381 -0.968367
-1.32144 0.977943 0.801768 -0.597232 -0.68159 0.422789
-0.173628 0.0906094 0.628431 -0.946514 -0.0871636 0.310666
-0.124957 0.0934209 0.707532 -0.891728 0.17796 0.416115
-1.29606 1.12547 1.0541 0.717891 -0.658043 0.227183
-1.39944 1.18807 0.872528 0.241146 -0.0641388 -0.968367
-0.235503 0.503147 0.907211 -0.618749 0.128732 -0.77497
-0.204961 0.438015 0.859603 -0.945149 0.325413 0.0282868
-0.0753138 0.321368 0.779155 -0.298824 0.31042 -0.90241
-0.0528594 0.297241 0.751042 -0.431427 0.314205 -0.845663
-0.0781546 0.302563 0.748315 -0.431427 0.314205 -0.845663
-0.0865404 0.363053 0.800231 -0.380051 0.33157 -0.863494
-1.29466 1.05352 1.01335 -0.902858 -0.22935 0.363657
-1.38883 1.09958 0.864416 -0.860687 -0.341476 0.37764
-1.27119 1.08139 1.02613 -0.794473 0.318283 -0.517213
-0.712549 0.153424 0.181901 -0.127975 0.760259 -0.63689
-1.18027 0.947704 0.896575 -0.561948 -0.768616 0.305686
-0.675241 0.26539 0.194253 -0.608001 0.766776 -0.205888
-0.0839771 -0.000285125 0.646255 -0.554635 0.289498 -0.78011
-0.126438 0.136368 0.727918 -0.861598 0.416564 0.290041
-2.6358 1.44677 1.86601 0.114265 -0.721698 -0.682712
-0.193232 0.10841 0.575408 -0.0744255 -0.843896 -0.53132
-1.39617 1.09271 0.884723 -0.860687 -0.341476 0.37764
-1.41209 1.12377 0.848806 0.241146 -0.0641381 -0.968367
-1.41371 1.2753 0.727919 -0.287752 -0.744826 -0.602024
-0.23491 0.540865 0.937108 -0.796846 -0.60369 0.0243937
-0.0735617 0.335514 0.776508 -0.442301 0.362827 -0.820199
-1.51625 1.21203 0.845827 -0.508816 -0.761197 -0.402102
-0.108512 0.476042 0.851521 -0.015577 0.546882 -0.837065
-0.197887 0.527874 0.893885 -0.179761 0.84496 -0.503715
-1.32235 1.15319 1.06035 0.740102 -0.663814 0.107701
-0.182794 0.535039 0.922787 -0.846617 -0.00655109 -0.532162
-0.106689 0.419103 0.816147 -0.472293 0.288469 -0.832901
-0.709745 1.02693 1.35603 -0.665321 0.46016 -0.587878
-0.386941 0.783282 1.09742 -0.250476 0.494379 -0.832377
-0.409641 0.653582 0.229944 -0.0113289 -0.242303 0.970135
-0.376702 0.0747148 -0.0275571 -0.602351 -0.740817 -0.29726
-0.244941 0.106213 0.483288 -0.952462 -0.263248 0.153353
-0.186382 0.484918 0.859699 -0.313108 0.207332 -0.92681
-2.83467 2.20324 1.70702 0.0661041 -0.328011 -0.942358
-0.555825 0.847531 1.19676 -0.1866 0.206627 -0.960461
-0.892748 0.17421 0.0763137 -0.574448 0.809796 0.119327
-0.864085 0.183795 0.0165357 -0.565024 0.764677 0.309866
-0.657413 0.226153 0.148918 -0.353589 0.65356 -0.669204
-0.100512 0.0460923 0.659507 -0.250654 0.156513 -0.955341
-0.799647 0.636641 0.415849 -0.529158 0.507351 -0.680138
-1.41163 1.41726 0.611921 -0.298186 0.332329 -0.894786
-0.123931 -0.0120474 0.672706 -0.643416 0.607119 -0.466285
-0.409914 0.493615 0.152962 -0.259916 0.107844 -0.95959
-0.367324 0.656356 1.03687 -0.531242 -0.0435347 -0.846101
-0.144621 0.497449 0.865658 -0.0479774 0.536713 -0.842399
-0.0243322 0.405223 0.764047 -0.579181 0.240595 -0.778886
-0.0241738 0.340596 0.75028 -0.483295 0.37874 -0.789292
-0.0333536 0.466959 0.793283 -0.277378 0.264502 -0.923634
-0.228771 0.648578 0.97287 -0.344467 0.273658 -0.898028
-0.384554 0.509757 0.14926 0.141289 -0.476511 0.867741
-0.054253 0.405263 0.81208 -0.338965 0.192361 -0.920924
-0.843645 1.19077 1.43 -0.707998 0.18225 -0.682293
-0.543312 0.717039 0.294943 -0.649037 0.540442 -0.535419
-0.161831 0.603061 0.910134 -0.430576 0.27444 -0.859818
-0.0546952 0.509386 0.797619 -0.545523 0.512222 -0.663349
-0.207251 0.522178 0.919699 -0.805197 -0.588973 -0.0690507
-0.179142 0.650754 0.943102 -0.306974 0.255245 -0.916852
-0.142261 0.615145 0.900543 -0.336437 0.352751 -0.873142
-0.140441 0.497496 0.866004 0.179481 0.704452 -0.686683
-1.12958 1.36783 1.06078 0.854609 -0.497036 -0.150329
-0.379495 0.854788 1.1535 -0.318302 0.493389 -0.809476
-0.84513 1.25725 1.42339 -0.909038 0.274384 -0.31363
-0.16679 0.671491 0.937866 -0.294755 0.321696 -0.899795
-0.573236 0.879418 1.2284 -0.1866 0.206627 -0.960461
-0.203325 0.715426 0.9804 -0.35456 0.333196 -0.873652
-0.828666 1.31962 1.51907 0.161496 0.457879 -0.874223
-0.0747843 0.601619 0.887073 -0.281765 0.466483 -0.838452
-0.793395 1.26737 1.51116 -0.0622138 0.672858 -0.737151
-0.580455 1.09265 1.29853 -0.45607 -0.374567 -0.807279
-0.0529894 0.593791 0.877038 -0.201834 0.578458 -0.790348
-0.0202438 0.561938 0.85728 -0.31001 0.56987 -0.761014
0.000671965 0.543539 0.816933 -0.449161 0.628031 -0.635477
-0.380556 0.777095 1.09418 -0.250476 0.494379 -0.832377
-1.40345 1.41685 0.662367 -0.298186 0.332328 -0.894786
-0.697059 1.08959 1.36156 -0.227103 0.247859 -0.941801
-1.44431 1.45892 0.608229 0.298186 -0.332329 0.894786
-0.642059 1.08517 1.30107 -0.267115 -0.0864079 -0.959783
-0.954033 0.202745 -0.0669288 -0.456305 0.703041 0.545454
-0.341509 0.0626365 -0.0532429 -0.0742037 0.971247 0.226214
-0.306402 0.0635765 -0.064283 -0.440418 -0.716044 -0.541584
-3.6123 1.1875 1.81198 0.982509 -0.0316888 -0.183497
-3.41031 1.48376 1.77661 0.947533 -0.126492 -0.293567
-2.69333 1.9922 1.63085 0.114755 -0.367709 -0.922833
-0.868423 0.0677469 0.145937 -0.0968248 0.994184 -0.0471403
-0.943489 0.18252 -0.0440352 -0.376702 0.678349 0.630823
-0.921984 0.0976218 0.253089 -0.481338 -0.622531 -0.617065
-0.911844 0.167807 0.068398 -0.425301 0.858224 0.287352
-0.882375 0.0657991 0.210396 -0.674677 0.65735 0.33571
-3.45006 1.08217 2.02701 0.920669 -0.247848 -0.301561
-3.06896 0.903584 2.44839 0.54356 -0.0386333 -0.838481
-0.22694 0.0748708 0.479241 -0.652462 -0.687366 -0.319093
-0.103786 0.00921314 0.662952 -0.720124 0.390951 -0.573218
-0.242914 0.138723 0.506509 -0.770394 -0.27538 0.575029
0.00235001 0.00907711 0.597185 -0.452531 -0.274465 -0.848461
-0.0197995 0.0498936 0.595277 -0.481268 0.0358698 -0.875839
0.0416167 0.066446 0.625937 -0.653937 0.354913 -0.668134
0.0163868 0.0865396 0.652158 -0.229042 0.407672 -0.883936
-0.511534 0.408731 0.154314 -0.0231674 0.826383 0.562631
0.0400844 0.121697 0.654243 -0.573544 0.251928 -0.779474
-0.833003 1.22653 1.47281 -0.794743 -0.336458 0.505153
-0.344151 0.848943 1.12238 -0.318303 0.493388 -0.809476
0.188571 0.34473 0.655432 -0.465048 0.226436 -0.855837
0.135562 0.39893 0.719195 -0.325005 0.278387 -0.90381
-0.543298 1.16117 1.2877 -0.916908 0.241297 -0.317891
-0.601132 1.07975 1.29271 0.355872 -0.929678 -0.0951506
0.158619 0.491503 0.708632 -0.286825 0.320052 -0.902938
-0.0238452 0.570616 0.862674 -0.31001 0.56987 -0.761014
-1.15112 1.47265 0.68812 0.156068 -0.167311 -0.973473
-0.187969 0.50511 0.843486 -0.254554 0.248572 -0.934567
0.130075 0.532737 0.742264 -0.410224 0.288664 -0.865095
0.202562 0.465901 0.687462 -0.487423 0.206907 -0.848297
-0.420522 1.14359 1.28481 -0.135844 0.618915 -0.773622
-0.510808 0.792508 0.329712 -0.911534 0.194848 -0.362133
-0.134681 0.838319 0.990444 -0.45167 0.432992 -0.780072
-0.912054 1.70412 1.81009 -0.44891 0.432024 -0.782199
0.00796036 0.693976 0.89786 -0.446902 0.340965 -0.827056
-1.28241 1.59466 0.570275 0.306114 -0.475726 -0.824609
-0.84633 1.30193 0.707136 -0.584255 -0.793186 -0.171759
0.202196 0.48512 0.709428 -0.428316 0.190343 -0.883354
0.0850317 0.622847 0.808074 -0.481627 0.423168 -0.76744
0.120508 0.577236 0.770924 -0.510075 0.267496 -0.817477
-1.16863 1.99386 1.91181 -0.167318 0.469553 -0.866905
-0.368393 1.13705 1.1945 -0.227412 0.604363 -0.763564
0.00135067 0.734758 0.897889 -0.402903 0.325669 -0.855341
-1.15846 1.45489 0.689532 0.156068 -0.167311 -0.973473
-0.0709025 0.838715 0.973979 -0.189555 0.422428 -0.886354
-0.57262 0.893693 1.21927 -0.1866 0.206627 -0.960461
-0.145343 -0.0178014 0.662024 -0.604434 0.796359 -0.0217168
-3.12249 0.932161 2.48084 0.54356 -0.0386333 -0.838481
-0.232051 0.0823943 0.443165 -0.292001 -0.879775 -0.375141
-0.494127 0.42908 0.161243 -0.0231674 0.826383 0.562631
-0.521769 0.825949 1.16731 -0.417901 0.229312 -0.879076
-0.0682819 0.495922 0.818344 -0.666668 0.165487 -0.726752
-0.216273 0.518248 0.884622 -0.565581 0.497092 -0.658041
-0.828763 1.28409 1.50647 -0.0622138 0.672858 -0.737151
-1.35322 1.4784 0.60779 0.555592 -0.468783 -0.686703
-0.498628 0.751482 0.298896 -0.775516 0.444946 -0.447882
-0.510014 0.782355 0.286397 -0.911534 0.194848 -0.362133
-1.32222 1.48488 0.650822 0.303151 -0.534554 -0.788893
-0.734908 1.28422 1.46434 -0.360887 0.780807 -0.510001
-0.571188 1.10528 1.34251 -0.890025 0.445823 0.0953841
-0.50678 0.800822 0.306931 -0.911534 0.194848 -0.362133
-0.895583 1.42886 1.54791 -0.175539 0.427223 -0.886942
-0.141448 0.718429 0.951158 -0.287369 0.340251 -0.895348
-1.27207 1.49189 0.680836 0.215256 -0.567452 -0.794773
-0.0622971 0.547971 0.828892 -0.506953 0.575722 -0.641516
0.0273049 0.567609 0.826536 -0.557225 0.549913 -0.622171
-0.85882 1.45725 1.55161 -0.175539 0.427223 -0.886942
-0.0281534 0.527312 0.822979 -0.245478 0.574854 -0.780566
-0.913914 1.5415 1.63569 -0.409153 0.600495 -0.687022
-0.608999 1.20451 1.29841 -0.426785 0.250663 -0.86892
-0.437212 1.05143 1.2087 -0.19288 0.0304098 -0.980751
-0.551333 1.15184 1.23328 -0.916908 0.241297 -0.317891
-0.238629 0.874536 1.07096 -0.384332 0.5751 -0.722184
0.0482709 0.571374 0.797612 -0.504854 0.350241 -0.788957
-0.532048 1.19001 1.35126 -0.0911353 0.170333 -0.981163
-1.1326 1.45036 0.714213 0.156068 -0.167311 -0.973473
-0.816569 1.20586 0.83639 -0.585153 -0.773456 -0.243644
-0.416416 1.08666 1.24439 -0.402848 0.504616 -0.763594
-0.784535 1.3489 1.52228 -0.00151294 0.347295 -0.937755
-0.138408 0.114145 0.665508 -0.858617 0.413969 0.302335
-0.949685 0.096159 0.145759 -0.876274 0.466091 0.122079
-0.971929 0.115928 0.131646 -0.782881 0.586208 0.208465
-0.943618 0.137967 0.106925 -0.379262 0.84242 0.382738
-5.7608 1.20577 3.73963 -0.219138 -0.0827632 -0.972177
-3.34196 0.974296 2.3229 -0.0112886 -0.981534 -0.190953
-0.796114 0.331507 0.27833 -0.139298 0.197937 0.970267
-0.155547 -0.00743422 0.632386 -0.929697 0.0497093 0.364955
-0.762749 0.409431 0.269302 -0.14978 0.444867 -0.882983
0.0155982 0.00260813 0.588491 -0.321843 0.0997825 -0.94152
-0.169145 0.114136 0.597233 -0.933894 -0.010175 0.357406
-0.205927 0.138826 0.552365 -0.467692 0.664388 0.582969
0.0259343 0.0117572 0.613482 -0.325491 0.715159 -0.618549
-0.118646 0.110575 0.716686 -0.685228 -0.262601 0.679341
-0.0290618 0.0138464 0.620581 -0.454827 0.0610218 -0.888487
-3.26815 1.01376 2.62607 -0.215364 0.0292606 -0.976095
-0.0531498 0.0440822 0.628634 -0.521611 0.180989 -0.833766
0.0614413 0.0891971 0.610163 -0.680808 0.252686 -0.687496
-2.6348 1.41924 1.89216 0.114265 -0.721698 -0.682712
-0.0384706 0.0817076 0.6401 -0.517933 0.63072 -0.577874
0.0599198 0.134547 0.639893 -0.553211 0.443383 -0.705244
0.110556 0.217953 0.643243 -0.499931 0.437548 -0.74741
-0.578188 0.816765 1.19598 -0.287802 -0.120116 -0.950127
-1.40493 1.34195 0.595916 0.271153 -0.507706 -0.817748
-0.0955401 0.488175 0.858341 -0.262666 -0.742798 -0.615839
-0.0219655 0.528446 0.814974 -0.245478 0.574854 -0.780566
-0.763332 1.18062 1.40546 -0.360698 0.281284 -0.889256
-0.505394 0.819141 0.309838 -0.911534 0.194848 -0.362133
-0.847125 1.42315 1.52697 -0.121413 0.364217 -0.923366
0.00775995 0.590475 0.827663 -0.516257 0.475241 -0.712478
-0.967568 1.57817 1.1638 0.812304 -0.466247 -0.350395
-0.670392 1.29331 1.41906 -0.359346 0.683778 -0.635073
-1.15594 2.0136 1.95778 -0.167318 0.469553 -0.866905
-1.08345 1.9724 1.98346 -0.167318 0.469553 -0.866905
-1.10945 1.57822 0.686235 -0.659393 -0.129134 0.740625
-0.124732 0.528325 0.865595 0.110372 -0.54088 -0.833827
-0.420285 1.27098 1.32631 -0.188964 0.633455 -0.750351
-1.15224 2.12724 2.02123 -0.167318 0.469553 -0.866905
-0.389786 1.06909 1.20051 -0.326714 0.432096 -0.840566
-0.0639769 0.894647 1.01583 -0.512489 0.490994 -0.704471
-0.41738 1.14281 1.26573 -0.135844 0.618915 -0.773622
-0.592095 1.07092 1.31794 -0.397833 -0.310448 -0.863337
-0.152462 0.00168526 0.616205 -0.856209 -0.142264 0.496656
-0.904467 0.191373 -0.0498301 -0.626978 0.678744 0.382368
-0.049109 0.0161175 0.633464 -0.516582 0.0162857 -0.856082
-1.29219 1.0951 0.982314 -0.929221 0.0105435 0.369374
-0.864572 0.0684776 0.164094 -0.863473 0.304178 -0.402355
-0.999832 0.140351 0.108268 -0.615755 0.6902 0.380092
-1.17924 0.152108 0.401519 -0.301224 0.374153 -0.877082
-0.759682 0.142595 0.150007 -0.201301 0.932204 -0.300787
-0.392248 0.0688386 -0.025228 -0.643239 -0.608882 -0.464226
-0.312679 0.0584143 -0.0720316 -0.604441 -0.639852 0.474595
-4.4405 0.899517 2.99914 0.0507835 -0.941937 -0.331928
-0.7722 0.255686 0.077802 -0.433614 -0.595347 -0.676418
-3.9911 0.904851 2.7483 -0.0442997 -0.953498 -0.298127
-5.23734 1.38668 3.07551 0.509622 0.857333 0.0725593
-6.06396 1.50378 3.94818 -0.511082 -0.251984 -0.821766
-5.1942 1.23448 3.508 0.0862386 0.839994 -0.535699
-0.779394 0.284012 0.0269562 -0.475801 -0.700625 -0.531731
-6.56279 1.74133 4.0094 0.102255 0.801015 -0.589847
-1.96922 0.474446 1.21587 0.874638 0.470608 0.116348
-5.42459 1.35095 3.76737 -0.157731 -0.0856326 -0.983762
-0.925024 0.211083 0.280977 -0.494589 -0.370503 -0.786199
-6.1767 1.681 3.94095 0.686904 0.676596 0.265294
-1.01313 0.322487 0.340305 -0.259093 0.0688263 -0.963397
-0.754107 0.187286 0.217307 -0.728065 0.30207 -0.615366
-3.56263 1.07268 2.23089 0.565676 -0.70101 -0.434276
-2.00433 0.468427 1.21628 0.874638 0.470608 0.116348
-0.912999 0.246502 0.321999 -0.611526 0.39622 -0.684869
-0.210924 -0.0528272 0.622299 -0.483995 0.80095 0.35246
-0.202338 -0.0249278 0.639435 -0.619576 0.753833 0.218772
-0.169832 -0.0248601 0.599286 -0.576777 0.777952 0.249238
-3.33079 0.936891 2.3253 -0.198993 -0.967131 -0.1583
-0.154737 -0.0223349 0.605455 -0.872668 0.272518 0.405198
-3.03272 1.08315 2.47453 -0.31572 -0.000727352 -0.948852
-0.755328 0.375179 0.251054 -0.127776 -0.0347614 0.991194
-0.17092 -0.0190987 0.614173 -0.523682 0.708855 0.472527
-0.0990863 0.0375787 0.664307 -0.508546 0.347213 -0.787924
-0.237054 0.184244 0.44741 -0.96376 -0.266764 -0.00208108
0.0410693 0.0308593 0.59395 -0.28211 0.658186 -0.698
-2.3986 1.27179 2.09174 0.0216884 -0.890931 -0.45362
0.0530702 0.0426862 0.621579 -0.849647 0.398521 -0.345371
-0.0664088 0.0511218 0.697745 -0.893631 0.0658697 -0.443942
0.0184945 0.121793 0.660637 -0.245926 0.349961 -0.903907
0.0815918 0.0986027 0.602692 -0.412104 0.299294 -0.860578
-4.38394 2.75807 2.88839 0.640626 -0.168525 0.749131
-1.19307 0.908466 0.899083 -0.561948 -0.768616 0.305686
-1.34975 1.03285 0.915696 -0.89884 -0.197856 0.391075
-0.66905 0.870555 1.18895 -0.00382207 0.357475 -0.933915
-0.563987 0.788756 1.18779 -0.640872 0.0904866 -0.762296
0.0696777 0.21952 0.665964 -0.353366 0.439678 -0.825721
-0.721034 0.955557 1.31219 -0.366314 -0.665208 0.650625
-0.53045 0.719566 0.266365 -0.705862 0.47769 -0.52304
-0.203659 0.444386 0.871767 -0.538215 -0.0937943 -0.837573
0.104739 0.334776 0.698662 -0.312411 0.209712 -0.92651
-0.733623 1.04107 1.33533 -0.254296 0.043562 -0.966145
-0.815062 1.15466 1.40994 -0.694411 0.228934 -0.682189
-0.389235 0.880653 1.15997 -0.245714 0.536932 -0.807049
-1.13134 1.47487 1.15192 -0.815749 0.418046 -0.399739
-0.499494 0.812845 0.312241 -0.911534 0.194848 -0.362133
-0.493551 1.02616 1.27987 -0.458997 0.175394 -0.870952
0.215123 0.356992 0.648948 -0.861283 0.44268 -0.249451
-1.13492 1.33323 1.01048 -0.884632 0.466021 0.0158483
-1.30898 1.61857 1.43748 -0.201276 -0.968032 -0.149672
-0.842745 1.23391 1.41525 -0.707998 0.18225 -0.682293
-1.10571 1.46076 0.68767 0.156068 -0.167311 -0.973473
-1.10627 1.48373 0.686969 0.156068 -0.167311 -0.973473
-0.854538 1.32419 0.69136 -0.584255 -0.793186 -0.171759
-0.0677204 0.489533 0.893623 -0.178912 -0.571341 -0.800974
-0.396981 1.20684 1.30912 -0.30401 0.528086 -0.792908
-0.271943 1.1887 1.23942 -0.377829 0.503794 -0.776812
-0.844946 1.28458 0.714962 -0.584255 -0.793186 -0.171759
0.0438595 0.569694 0.799509 -0.504854 0.350241 -0.788957
-0.471973 0.424893 0.152564 -0.0231674 0.826383 0.562631
-5.10771 1.12917 3.48748 0.359867 0.801548 -0.477511
-0.588804 0.386294 0.184812 -0.326658 0.604885 0.726229
-0.551729 1.11927 1.28821 -0.749625 0.63714 -0.179209
-5.87812 1.16167 3.78925 -0.0613956 0.438731 -0.896519
-6.07339 1.43797 3.30763 0.690374 0.688955 -0.220737
-7.318 1.49094 4.73047 0.27239 -0.851267 0.448496
-5.57446 1.15069 3.76862 -0.219138 -0.0827632 -0.972177
-5.41449 1.12594 3.55386 0.588753 -0.602842 0.538471
-6.46443 1.44967 4.18656 0.14853 0.595921 -0.789187
-4.9859 1.1206 3.56182 0.359867 0.801548 -0.477511
-5.0658 1.21419 3.73506 0.0689277 0.653697 -0.753611
-0.950102 0.344164 0.323896 -0.289732 0.377197 -0.879647
-0.169599 -0.000976571 0.553178 -0.852156 0.106216 0.512394
-0.271328 0.102852 0.455786 -0.890545 -0.442333 -0.106169
-0.124317 0.00406771 0.691533 -0.736244 0.58723 0.336312
-0.777804 0.419938 0.275826 -0.109552 0.554168 -0.825164
-0.598907 0.371152 0.180728 -0.345118 0.500582 0.793922
-2.69884 1.13495 2.42362 -0.327836 -0.0573332 -0.942993
-0.265228 0.188298 0.416679 -0.964678 -0.172967 -0.198691
-0.213179 0.0632842 0.622326 -0.42073 0.085375 0.90316
-0.169532 0.0552048 0.605728 0.0323132 -0.223097 -0.97426
-0.839819 0.452122 0.307741 -0.168575 0.890697 -0.422186
-0.726919 0.419788 0.276729 -0.395981 -0.285198 -0.872847
-2.68871 1.14532 2.42181 -0.327836 -0.0573332 -0.942993
-0.0167682 0.0432699 0.616029 -0.481268 0.0358698 -0.875839
-0.736231 0.316074 0.229605 -0.80358 -0.567636 -0.179019
-1.27215 0.901046 0.798286 -0.581903 -0.774691 0.247473
0.0993909 0.158974 0.61851 -0.592201 0.551101 -0.587866
-0.0406465 0.245904 0.753719 -0.278695 0.423235 -0.862091
-0.590377 0.352377 0.206529 -0.436853 -0.659598 -0.611629
