ply
format ascii 1.0
element vertex 876
property float x
property float y
property float z
property float nx
property float ny
property float nz
end_header
2.2658 0.777883 -1.63483 -0.0708734 -0.807835 0.585132
1.05515 1.23141 1.91718 -0.119041 0.920549 -0.372047
1.01069 1.23987 1.90794 -0.192871 0.584335 -0.78826
0.86914 1.23529 1.84665 -0.15377 0.857482 -0.490998
0.98718 1.22135 1.69545 -0.324694 0.9096 -0.259233
2.43664 0.911356 -1.4637 -0.0154533 -0.75724 0.652954
0.917141 1.20351 1.91636 0.320997 0.315653 -0.89293
0.954078 1.21868 1.70496 -0.478615 0.87802 -0.00285915
1.1802 1.32436 2.11209 -0.296281 0.941849 -0.158549
0.861836 1.23686 1.85028 0.0382678 -0.99198 0.120459
0.881477 1.23318 1.85499 -0.392543 0.900157 -0.188753
0.920326 1.24167 1.90878 -0.899103 0.121698 0.420479
0.977224 1.21846 1.92468 -0.449145 0.634309 -0.629222
0.983827 1.22943 1.71845 -0.199093 0.918758 -0.340949
0.991275 1.23072 1.71029 -0.25316 0.953499 -0.163553
0.900557 1.1915 1.76463 0.480506 -0.291884 -0.826993
0.942163 1.25658 1.9068 0.606476 -0.738867 -0.293705
4.45565 0.0737243 -2.59418 -0.574269 -0.666275 -0.475703
0.984475 1.21986 1.67821 -0.284619 0.945419 -0.158668
0.89655 1.24563 1.85246 -0.201502 0.913257 -0.35406
0.949283 1.21376 1.9205 -0.0264477 0.402482 -0.915046
0.877253 1.22582 1.82798 -0.131967 0.86308 -0.487522
4.74999 0.980554 -3.98989 -0.145449 0.989296 -0.0117665
0.846659 1.22642 1.8937 -0.4135 -0.910326 0.0179986
2.06214 1.00936 -0.434814 -0.437889 0.866922 -0.238116
1.02143 1.31126 1.88977 -0.612161 0.241137 -0.753069
0.99935 1.22881 1.72172 -0.231034 0.909806 -0.344785
1.01312 1.23523 1.71897 -0.0263301 0.938682 -0.343778
0.970691 1.21869 1.68906 -0.278345 0.912603 -0.299464
0.844387 1.23394 1.87011 -0.0595578 -0.9981 -0.015788
0.882902 1.19002 1.75729 -0.0328102 -0.99905 0.0286872
5.9587 0.716241 -5.61592 -0.402737 0.883457 -0.239388
1.15169 1.19743 1.61074 -0.405383 0.828029 -0.387341
0.837521 1.23719 1.8779 -0.819512 -0.573054 0.00315393
1.89398 0.939877 -0.240066 -0.293166 0.945727 -0.140192
1.05164 1.22743 1.70465 -0.119925 0.972899 -0.197701
1.04619 1.22768 1.674 0.048503 -0.990774 0.126546
0.85386 1.18069 1.71859 0.0644397 0.954232 -0.292044
0.851283 1.17563 1.70013 -0.283213 0.882749 -0.374893
0.845805 1.18207 1.71562 -0.192929 0.960614 -0.2
2.01986 1.02096 -0.303778 -0.302097 0.947152 -0.107888
0.917622 1.16172 1.66005 -0.586934 -0.807602 -0.0573394
0.891597 1.18861 1.73904 -0.168522 -0.963693 0.207112
1.11738 1.18911 1.61607 -0.520007 0.838598 -0.162315
0.91483 1.15219 1.67673 -0.878541 -0.314355 0.359647
1.01445 1.22692 1.67638 -0.17775 0.926793 -0.330846
0.875951 1.24352 1.86552 -0.93732 0.334539 -0.0975414
0.919493 1.24592 1.83479 -0.154336 0.85519 -0.494804
1.01468 1.22047 1.65301 -0.230264 0.926346 -0.298098
0.887985 1.19536 1.75744 0.0178595 -0.997213 -0.0724412
0.883996 1.18721 1.73214 -0.0854563 0.968338 -0.234559
0.861786 1.24701 1.88196 -0.189693 0.684132 -0.704259
1.00341 1.22393 1.6872 -0.272822 0.902184 -0.334115
0.830027 1.2093 1.89144 0.248139 -0.604117 -0.757278
0.846576 1.23536 1.85918 -0.10365 0.977152 -0.185556
0.910575 1.25822 1.8849 -0.794153 0.544185 -0.270523
0.999251 1.2157 1.65273 -0.0651654 -0.983668 0.167783
1.03308 1.22481 1.64841 -0.219905 0.93279 -0.285561
0.898888 1.16903 1.77255 -0.163085 -0.598757 -0.784151
0.999003 1.26232 1.89573 -0.957669 -0.258078 0.12754
0.952997 1.20621 1.65883 -0.358166 0.909506 -0.210988
1.01356 1.35458 1.8725 0.505349 0.125127 -0.853795
0.846661 1.15525 1.62507 -0.0447485 0.942616 -0.330866
0.997546 1.22993 1.89266 -0.85134 0.502667 -0.150155
1.02995 1.32246 1.87955 0.0774971 -0.0409274 -0.996152
0.997277 1.36318 1.84279 0.458143 0.101389 -0.883077
1.09915 1.2572 1.8787 0.234383 -0.827456 -0.510275
0.825267 1.22401 1.82374 -0.597203 0.792507 -0.123618
0.907554 1.25909 1.89818 -0.974953 -0.194339 -0.108158
0.814765 1.23532 1.88393 -0.834464 -0.124699 -0.536768
0.844366 1.22793 1.83406 -0.156337 0.95084 -0.267324
0.847292 1.2329 1.85721 -0.10365 0.977152 -0.185556
0.855696 1.18553 1.73676 0.153449 0.951728 -0.265833
0.89347 1.17135 1.77096 -0.163085 -0.598757 -0.784151
0.862946 1.19297 1.76267 0.278224 0.907724 -0.314051
0.837962 1.23269 1.86466 0.0176247 0.957881 -0.286624
0.893116 1.18883 1.75931 -0.939678 -0.340953 -0.0274904
0.844243 1.19576 1.76382 -0.544953 0.807308 -0.226452
0.842827 1.1891 1.74629 -0.00569229 0.969962 -0.243192
0.850176 1.19553 1.75419 -0.110391 0.969313 -0.219649
0.835036 1.18919 1.75707 -0.472943 0.859343 -0.194561
2.19017 0.952028 -0.781428 -0.228915 0.94984 -0.213078
1.55015 0.967528 0.185956 -0.17413 0.953226 -0.247062
1.97803 0.68416 -1.47046 -0.483966 0.82866 -0.281246
1.61434 0.834119 -0.416328 -0.319154 0.932042 -0.171576
1.9228 0.694308 -1.31798 -0.414784 0.773942 -0.478507
0.91948 1.15835 1.66959 -0.952001 -0.306084 0.00261796
0.897175 1.16836 1.67751 -0.929704 -0.342877 0.13448
0.871563 1.15866 1.64862 0.0433888 0.974821 -0.218727
0.904214 1.16239 1.66207 -0.586934 -0.807602 -0.0573394
0.912876 1.13995 1.6703 -0.586934 -0.807602 -0.0573394
0.855714 1.16843 1.68432 -0.402232 0.895618 -0.189944
0.845157 1.16754 1.66014 0.0787083 0.977704 -0.194681
0.848466 1.1691 1.67597 0.0541485 0.977424 -0.204233
0.848214 1.18695 1.73363 0.270131 0.89885 -0.345104
1.95578 0.801149 -0.944545 -0.489646 0.870078 0.0566604
1.91779 0.664461 -1.47616 -0.0821142 0.996283 -0.0260303
1.26749 1.06319 0.24084 0.0322254 -0.394179 0.918468
1.26909 1.04482 0.232643 0.0322254 -0.394179 0.918468
2.1369 0.586222 -2.27751 -0.30938 -0.950727 0.0200503
1.37402 0.90044 0.141035 -0.161418 -0.284109 0.945106
1.46297 0.8784 -0.0812424 -0.095152 0.959657 -0.264582
1.61581 0.930906 -0.0871261 -0.272075 0.923552 -0.270234
1.3161 1.03543 0.232848 -0.769271 -0.564212 0.299811
1.06625 0.94519 0.69155 -0.252406 0.952466 -0.170585
1.22722 0.861602 0.114313 -0.665531 0.746093 0.02036
1.80514 0.746324 -0.920189 -0.496424 0.858182 -0.130716
1.23786 0.907613 -0.0225612 -0.660856 0.730711 -0.171263
2.56109 0.779221 -1.65297 -0.769989 0.47479 -0.426253
1.92698 0.780413 -1.1028 -0.464809 0.82582 -0.319333
1.12732 1.19416 1.60811 -0.428865 0.895706 -0.117409
1.11488 1.18391 1.58485 -0.262872 0.908039 -0.326135
1.04962 1.23192 1.72285 -0.674191 -0.711232 -0.199034
0.90849 1.16661 1.65684 0.752542 0.374011 -0.54203
0.889239 1.15724 1.63872 -0.420155 0.906647 -0.0382127
1.00479 1.21294 1.63442 0.0131489 -0.993414 0.11382
0.892698 1.1631 1.65055 -0.0336431 -0.994461 0.0995804
0.875679 1.14657 1.59808 0.0750481 0.921985 -0.379884
0.887833 1.14619 1.60383 0.253603 0.877772 -0.40645
0.922214 1.19368 1.6493 0.525402 -0.681374 -0.509589
0.867676 1.14921 1.59244 0.0713462 0.965079 -0.252056
1.04837 1.22354 1.72076 -0.674189 -0.711234 -0.199034
1.03713 1.21791 1.63487 -0.22862 0.955902 -0.184349
1.35503 0.888206 0.168865 -0.161419 -0.28411 0.945106
0.884585 1.13934 1.58055 0.171675 0.924312 -0.340846
1.29877 0.983395 0.14689 -0.76927 -0.564213 0.299812
1.34065 0.985305 0.146542 -0.76927 -0.564213 0.299812
1.33409 0.959225 0.137065 0.0370588 -0.371124 0.927844
1.30892 0.9033 -0.194233 -0.490623 0.871244 -0.0149202
2.0166 0.912844 -0.665125 -0.271716 0.944006 -0.187146
1.40023 0.946889 0.203118 -0.38764 -0.350107 0.852737
1.42618 0.998893 -0.171155 -0.0483124 -0.365349 0.929616
1.31027 0.886942 0.1912 -0.161418 -0.284109 0.945106
0.893709 1.15503 1.62779 0.164419 0.919904 -0.35601
1.00398 1.23077 1.69631 -0.241291 0.952009 -0.188301
0.917593 1.19635 1.64756 0.525402 -0.681374 -0.509589
1.12546 1.19731 1.64021 -0.325167 0.840424 -0.433537
0.821938 1.22494 1.8281 -0.640334 0.75932 -0.115776
0.811791 1.23851 1.88293 -0.385375 0.818304 -0.426456
0.830969 1.22351 1.83623 -0.773227 0.614892 0.155011
0.871158 1.15411 1.60652 0.0499354 0.928667 -0.367537
0.774117 1.2001 1.81126 -0.988535 -0.0352168 -0.14683
1.01307 1.21525 1.64419 -0.221292 0.935119 -0.276735
0.917218 1.24902 1.83871 -0.154336 0.85519 -0.494804
0.894636 1.13953 1.60624 -0.432245 -0.823678 0.36704
0.8442 1.14967 1.61704 -0.0700191 0.940432 -0.332693
0.885338 1.13017 1.56583 0.246487 0.919515 -0.306162
1.01804 1.22718 1.6769 -0.0930568 0.946726 -0.308302
0.850502 1.14272 1.5878 -0.00569505 0.966667 -0.255974
0.925609 1.19931 1.64839 0.525402 -0.681375 -0.509589
0.979944 1.22024 1.65262 -0.148829 0.963119 -0.22417
0.888061 1.17206 1.76937 -0.163085 -0.598757 -0.784151
0.947074 1.15508 1.72505 -0.875043 0.444463 0.191708
0.995801 1.21665 1.649 -0.0651663 -0.983668 0.167783
0.818576 1.14508 1.57834 0.0579922 0.969326 -0.238838
0.837566 1.14591 1.59415 -0.0267448 0.972372 -0.231901
0.767437 1.20973 1.87965 -0.961993 -0.271572 -0.0285984
0.844189 1.15955 1.63945 0.200945 0.934286 -0.294502
0.782785 1.18273 1.76702 -0.668218 -0.640864 0.37786
0.821062 1.1852 1.76156 -0.52525 0.834611 -0.165943
0.830324 1.16482 1.64771 0.121349 0.937311 -0.326684
1.0316 1.22919 1.73043 0.148361 0.90173 -0.406045
2.12344 0.695752 -2.50221 0.0298974 0.996807 -0.074044
1.7369 0.824683 -0.6277 -0.239183 0.921472 -0.306073
0.838311 1.16641 1.65488 -0.0360743 -0.994288 0.100454
0.831858 1.133 1.54272 0.166069 0.944072 -0.284866
0.834869 1.17977 1.69103 -0.402232 0.895618 -0.189944
0.802793 1.17406 1.73492 0.0461523 -0.998797 0.0165832
0.854722 1.13329 1.54639 0.137744 0.939811 -0.3127
0.837235 1.15566 1.61572 -0.0450613 0.936627 -0.347417
0.818019 1.14846 1.6115 0.110283 0.947409 -0.300422
0.786038 1.18806 1.77151 -0.020224 0.776745 -0.62949
0.794295 1.16304 1.67042 -0.454093 0.888487 0.0662597
0.794006 1.17804 1.75287 -0.474107 -0.834065 0.282059
0.824913 1.16274 1.62923 0.0876472 0.935268 -0.342916
0.836812 1.14196 1.57772 -0.0226402 0.963943 -0.265146
0.784405 1.17708 1.75391 -0.474107 -0.834065 0.282059
1.05615 1.22825 1.6528 -0.0112364 0.957206 -0.289189
1.49732 0.791099 -0.251457 -0.137422 0.936796 -0.321757
0.867948 1.18702 1.74891 -0.054803 -0.988632 0.140014
1.83509 0.901188 -0.426955 -0.188999 0.9462 -0.26265
2.03007 1.02201 -0.169223 -0.0817591 0.99662 0.00803145
1.1112 1.17782 1.59098 -0.262872 0.908039 -0.326135
0.874069 1.24429 1.87028 -0.705265 0.624355 -0.335829
0.775954 1.19838 1.81501 -0.988535 -0.0352168 -0.14683
0.77975 1.17757 1.73065 -0.289388 -0.95658 0.0347744
0.837005 1.18852 1.76704 -0.472943 0.859343 -0.194561
2.08914 0.603298 -2.03786 0.36938 0.897707 0.240166
2.26732 0.944669 -1.35345 -0.819971 -0.303322 -0.485431
0.929706 1.25224 1.85261 0.266735 0.783915 -0.560651
1.03283 1.28563 1.88653 0.0259236 -0.558133 -0.829346
0.993946 1.21671 1.66549 -0.0646261 0.974195 -0.21626
2.62378 0.900568 -1.93873 -0.232375 -0.965557 0.11705
0.980609 1.22944 1.71355 -0.167453 0.946745 -0.275016
1.84357 0.943647 -1.06146 -0.892435 -0.428145 0.142304
1.98975 0.868292 -0.737861 -0.312875 0.929595 -0.194842
1.8984 0.996174 -0.220243 -0.322605 0.93468 -0.149326
0.8586 1.13264 1.53498 0.119686 0.956996 -0.26426
1.02803 1.22974 1.68383 0.00923948 0.980473 -0.196438
0.864142 1.07627 1.38008 -0.367011 0.913674 -0.174653
0.858365 1.21633 1.8988 0.0798683 0.157951 -0.984212
0.777994 1.17293 1.73152 -0.289388 -0.95658 0.0347744
0.832283 1.15711 1.68955 -0.117427 0.97308 -0.198308
0.808074 1.18532 1.77211 0.115264 -0.788124 -0.604627
0.940108 1.26336 1.87425 -0.355344 -0.908297 0.22074
0.86692 1.11076 1.5079 0.0945533 0.968435 -0.230637
0.833607 1.13919 1.56162 0.0984324 0.961907 -0.255041
0.817095 1.17469 1.72572 -0.236024 0.939808 -0.247092
1.97239 0.791619 -2.20113 0.361911 0.889993 0.277368
1.11263 1.27707 1.85517 -0.0259634 0.00110258 -0.999662
0.98433 1.23809 1.73936 -0.196161 0.861619 -0.468116
0.595028 1.08227 1.68104 0.732161 0.545433 -0.407975
0.565516 1.04394 1.64867 0.602159 0.550985 -0.577772
0.600066 1.08043 1.69486 -0.702191 -0.691328 0.170273
0.309373 1.06956 1.28079 0.701136 0.523871 -0.483702
0.598866 1.08055 1.73045 0.722041 0.525642 -0.44984
0.212694 0.861953 1.21683 0.098524 0.9857 -0.136706
0.362535 0.894609 1.21564 0.68032 0.642665 -0.352345
0.375203 0.896439 1.25238 0.689032 -0.439157 -0.576521
0.300159 0.909887 1.35721 -0.80176 0.393134 -0.45014
0.581963 1.07742 1.70812 -0.314217 0.948899 -0.0293082
-1.19157 -0.7787 -1.21334 0.0669134 0.883019 0.464542
0.345262 0.914524 1.30107 -0.847607 0.167588 -0.503465
0.303724 1.08568 1.28804 0.701136 0.523871 -0.483702
0.200613 0.853292 1.25868 0.220692 0.772178 -0.595849
0.166134 0.900639 1.24916 -0.0051083 0.984559 -0.174977
0.140471 0.871749 1.22841 -0.689542 0.434932 -0.579108
0.101338 0.831565 1.23991 0.663797 0.659441 -0.352862
0.151488 0.865573 1.3198 0.225349 0.961437 -0.157663
0.49014 0.391502 1.76308 -0.150912 -0.432428 -0.88895
0.485627 0.451715 1.75479 -0.815795 -0.224076 -0.533168
-1.15831 -0.62618 -0.419566 0.939748 0.339793 -0.0376151
-1.60797 -0.128558 -1.51586 0.342999 0.198525 0.918117
-1.42849 -0.075672 -1.47317 0.282326 0.108747 0.953135
-1.27854 -0.667403 -0.585509 0.939748 0.339793 -0.037615
-1.27071 -0.830176 -1.30982 0.0669134 0.883019 0.464542
-1.16109 -0.691861 -0.493128 0.939748 0.339793 -0.037615
0.189479 0.858232 1.24273 0.0229951 0.996058 -0.0856717
0.232821 0.849381 1.23489 -0.767658 -0.484348 -0.419652
0.0935544 0.822003 1.18139 0.639932 0.760045 -0.113219
0.176048 0.879816 1.26951 0.353042 -0.148295 -0.92378
0.123548 0.8579 1.27251 -0.335967 0.597745 -0.727892
0.170257 0.873208 1.37085 0.762448 0.620501 -0.183445
0.1673 0.89389 1.39629 -0.638139 0.30429 -0.707239
0.146966 0.906964 1.41021 0.543956 0.755086 -0.366003
0.141924 0.859683 1.32393 0.145764 0.989119 -0.0199397
0.314479 0.860287 1.08385 -0.266008 0.920167 -0.287283
-1.15926 -0.858933 -1.25823 0.0669134 0.883019 0.464542
-0.044708 0.776006 1.22811 -0.475437 0.797896 -0.370571
0.229238 0.914087 1.44842 -0.765123 -0.4989 -0.407045
0.491021 1.09123 1.86714 0.509371 0.298309 -0.807188
0.193759 0.884737 1.45167 -0.328534 0.319115 -0.88895
0.482777 1.08204 1.86396 0.509371 0.298309 -0.807188
0.462441 1.07264 1.83739 0.561173 0.383145 -0.733679
0.468409 1.05375 1.86144 0.570727 0.419216 -0.706065
0.462425 1.06348 1.83956 0.698229 0.45408 -0.553433
0.191487 0.847596 1.17588 -0.713372 0.535171 -0.452429
-0.421539 0.481395 0.82991 0.604514 -0.232673 -0.761857
-0.454824 0.372426 0.820673 0.644 -0.288186 -0.70867
0.339654 0.86541 1.16197 0.714309 0.602075 -0.356748
0.525991 0.398839 1.75395 0.355031 0.922515 0.151388
-0.0954441 0.798335 1.32374 -0.472808 0.81428 -0.336751
0.326178 1.04684 1.26198 0.622483 0.669971 -0.404542
-0.431913 0.489708 0.807251 0.604514 -0.232673 -0.761857
-0.625247 0.268275 0.651559 -0.510932 0.583197 -0.63153
-0.52129 0.349503 0.663137 0.634796 0.0441766 -0.771416
-0.736867 0.499269 0.676377 0.224064 0.898441 0.377623
-0.545925 0.51125 0.736014 0.538224 -0.386849 -0.748774
0.493 0.382015 1.75523 -0.0745032 -0.149701 -0.98592
0.48562 0.296501 1.79082 -0.342514 -0.232529 -0.910282
-0.721875 0.276574 0.742836 0.705726 -0.42078 0.569996
-0.771764 0.479188 0.679344 0.224065 0.898441 0.377623
0.0420946 0.166409 1.71127 -0.0990216 0.87998 -0.464574
0.116364 0.200365 1.73906 -0.441688 0.172781 -0.880374
0.258082 0.243475 1.86131 -0.220433 0.969662 -0.105659
0.288401 0.264373 1.88413 -0.248381 0.937552 -0.243521
0.280381 0.272025 1.86062 -0.248381 0.937552 -0.243521
0.212858 0.229492 1.85312 -0.256625 0.948047 -0.188015
-0.645473 0.308097 0.740098 0.0635416 -0.225117 -0.972257
-0.682372 0.475326 0.678095 0.177128 -0.258729 -0.949571
-0.671657 0.294667 0.765089 -0.342122 0.679582 -0.648938
0.424336 0.91939 1.3077 -0.677153 0.730889 0.085232
-0.511394 0.390617 0.854695 0.644 -0.288186 -0.70867
0.31727 0.91344 1.35852 -0.80176 0.393134 -0.45014
0.591127 0.338806 1.82679 -0.248341 0.89199 -0.37773
0.440466 0.281646 1.79244 -0.556237 -0.0875459 -0.8264
-1.31472 -0.249423 -0.646116 0.815934 0.566938 0.113277
0.480224 0.439295 1.74696 0.892019 0.43777 -0.112516
-0.679274 0.455956 0.666749 0.177128 -0.258729 -0.949571
-0.706935 0.497354 0.661328 0.224064 0.898441 0.377623
-0.839739 0.632966 0.700708 0.777565 0.555075 -0.29544
0.00105361 0.141301 1.71266 0.490589 0.0463129 -0.870159
0.244754 0.247353 1.8655 -0.300973 0.919995 -0.251045
-0.806298 0.528258 0.572892 0.739027 0.395946 -0.545038
0.0921217 0.195834 1.84009 -0.426325 0.883244 0.195262
0.0242879 0.175711 1.7537 -0.784877 0.6191 0.0261553
-0.753246 0.278131 0.720213 0.730325 -0.308377 0.609532
0.0152233 0.145623 1.76497 -0.027325 0.666688 -0.744836
0.153098 0.22372 1.83911 -0.229913 0.929253 -0.289186
-0.592627 -0.13156 1.25407 -0.455897 0.742303 -0.491064
-0.277878 0.0380846 1.57438 -0.404682 0.913465 -0.0425915
-0.0359547 0.876171 1.66893 0.105599 -0.974497 -0.198003
0.57195 1.05725 1.65708 0.693143 0.311875 -0.649836
0.488382 0.538142 1.71053 0.119098 -0.0145714 -0.992775
0.0725684 0.20233 1.76403 -0.11759 0.984409 -0.130809
-2.06161 0.0257504 -0.705404 0.458059 0.873637 0.164137
-0.375547 -0.0226077 1.40322 -0.0965533 0.995326 -0.00206264
0.39568 1.05627 1.15119 -0.883822 0.0739658 -0.461939
0.397919 1.11087 1.18994 -0.864055 -0.119171 -0.489088
0.364192 0.950289 1.37731 -0.596077 0.789605 -0.145657
0.541685 0.333925 1.81532 -0.0559845 0.995779 -0.072735
-0.0931301 0.759977 1.25639 -0.472808 0.81428 -0.336751
-0.963336 0.762077 0.741541 -0.242919 0.964559 -0.103039
0.594124 0.318528 1.78191 -0.614049 0.636079 -0.467277
0.131654 0.933534 1.6574 -0.00872866 0.996064 -0.0882052
-0.142484 0.0796448 1.58453 0.0908451 0.915019 -0.393048
0.06466 0.190671 1.80572 -0.419654 0.892935 0.162963
0.184067 0.258858 1.92569 -0.203505 0.889543 -0.409021
0.249471 0.265026 1.91858 -0.325911 0.898652 -0.293608
0.118307 0.238764 1.92129 -0.169753 0.981543 -0.0880756
-0.108888 0.11737 1.72875 -0.19059 0.969149 -0.156286
0.119455 0.934577 1.68511 0.368705 -0.927128 -0.0670011
0.173798 0.217053 1.88895 -0.106899 0.981447 -0.159168
-0.78039 -0.162288 1.13555 -0.175298 0.810799 -0.558459
-0.123805 0.842888 1.53742 -0.539867 0.69719 -0.471668
-0.0473098 0.162025 1.79733 -0.207276 0.946778 -0.246267
0.0733537 0.242997 1.90594 -0.48191 0.801239 -0.354654
0.025228 0.151436 1.73969 0.487714 0.140844 -0.861567
-0.100806 0.138137 1.78221 -0.165266 0.978995 -0.119397
-0.0554472 0.169377 1.81971 -0.270694 0.952311 -0.140816
0.0650896 0.189613 1.80975 -0.57718 0.720032 0.38525
-0.940209 0.26846 0.939714 0.615575 -0.056995 0.786015
-0.354814 -0.0100234 1.58329 -0.415273 0.902704 -0.112577
-0.845033 -0.14808 1.14481 -0.340799 0.495313 -0.799075
-0.118939 0.143453 1.79811 -0.231362 0.967668 -0.100451
-0.413339 -0.0469502 1.3859 -0.0965533 0.995326 -0.00206264
-0.172436 0.113115 1.76217 -0.253667 0.95375 -0.161288
-0.917213 -0.237528 1.15502 -0.31171 0.878889 0.361098
-0.0319057 0.169338 1.88576 -0.380347 0.921694 -0.0762708
-0.860385 -0.241781 1.18311 -0.56948 0.80775 0.152424
-0.63331 -0.0903173 1.39893 0.420362 0.826747 -0.373879
-0.020134 0.174497 1.90748 -0.486933 0.873375 0.0105982
0.0179347 0.184567 1.93792 -0.495964 0.862459 -0.100917
0.0440859 0.218346 1.96198 -0.587477 0.770299 -0.248012
-0.270562 0.0394531 1.58022 -0.404682 0.913465 -0.0425915
-0.968731 0.711257 0.741584 -0.242918 0.964559 -0.103038
-0.653387 -0.132123 1.27472 -0.14466 0.98873 -0.0385449
-1.00787 0.776042 0.716263 0.242919 -0.964559 0.103039
-0.633997 -0.082964 1.33727 0.181333 0.975638 -0.12349
0.379345 1.21026 1.11787 -0.821746 -0.375455 -0.42868
0.591689 1.07492 1.69372 -0.994506 -0.099154 0.0335554
0.596641 1.07975 1.72988 0.722041 0.525642 -0.44984
-1.1745 -0.0564718 -1.62938 0.178628 0.00566098 0.9839
-1.43571 -0.0235339 -1.38339 0.282326 0.108747 0.953135
-1.82623 0.0520202 -0.586145 0.500514 0.841632 0.202832
0.49395 0.971954 1.14857 -0.982922 0.174801 0.0575285
0.397447 1.18375 1.12165 -0.799078 -0.475559 -0.367856
0.443412 0.879762 1.08385 0.635221 0.617112 -0.4644
0.40066 1.06661 1.13284 -0.935516 -0.110834 -0.33545
0.485408 0.911086 1.12458 -0.775747 -0.13753 -0.615875
-1.07979 -0.306835 -1.51984 0.399336 0.107567 0.910473
-0.913632 -0.805272 -1.23941 0.219194 0.72181 0.656464
0.521983 0.535453 1.72418 0.6373 0.347939 -0.687595
0.57706 0.326971 1.80621 -0.396695 0.729669 -0.55697
0.45354 0.518729 1.71361 0.0967498 -0.460068 -0.882597
0.599337 0.372905 1.92016 0.327978 0.877693 -0.349408
0.55671 0.383206 1.90476 0.0230565 0.94439 -0.328019
0.543963 0.344425 1.96238 -0.340177 0.807007 -0.482721
0.517518 0.325405 1.93656 -0.309809 0.950437 -0.0262172
0.202217 0.940273 1.54556 -0.891224 -0.453459 0.00973104
0.485638 0.323215 1.9645 -0.213861 0.890417 -0.401772
-0.819996 -0.201991 1.14446 0.16319 -0.394354 -0.904353
-0.340449 0.0136412 1.62184 -0.415272 0.902704 -0.112578
0.284793 0.321414 2.14185 -0.164934 0.943456 -0.287554
0.21628 0.274316 2.08798 -0.192027 0.971965 -0.135681
-0.694562 -0.0784479 1.4469 -0.308684 0.497122 -0.810915
-0.622431 -0.082496 1.37777 0.971097 -0.0732254 0.227175
0.129595 0.291075 2.12564 -0.228331 0.969184 -0.0924525
0.00822564 0.18089 1.93482 -0.495964 0.862459 -0.100917
-0.995553 0.648601 0.99219 0.315543 0.906572 0.280285
0.0547153 0.220741 1.76795 -0.149766 0.98649 -0.066389
0.080954 0.267757 2.0985 -0.218002 0.950015 -0.223489
0.163108 0.301289 2.16815 -0.149551 0.93776 -0.313435
-0.661561 -0.0988825 1.56474 -0.520721 0.850125 0.0783406
-0.198627 0.81173 1.57473 -0.256376 0.53425 -0.805511
-0.286017 0.105221 1.84555 -0.376535 0.890255 -0.256255
-1.3449 -0.464532 1.08405 -0.374951 0.891749 -0.253367
-0.113812 0.154835 1.97836 -0.279132 0.925041 -0.257651
-1.11594 0.800391 0.90012 0.6173 0.700201 0.358692
-0.792268 0.557949 1.26212 0.729911 0.180052 -0.659402
0.141202 0.282024 2.16716 -0.121151 0.95995 -0.252624
-0.0221372 0.221317 2.05733 -0.372326 0.881983 -0.288926
0.0321465 0.246382 2.09115 -0.216101 0.918351 -0.331561
-1.67548 -0.486973 0.859679 -0.365228 0.93004 0.0404299
-0.636417 -0.0202954 1.62883 -0.51921 0.854519 -0.014805
-0.154728 0.160542 1.97783 -0.25478 0.943368 -0.212474
-0.979209 0.646493 0.982213 0.315543 0.906572 0.280285
-0.276217 0.11032 1.91049 -0.319056 0.947619 0.0148852
-0.42606 -0.0365205 1.39001 -0.0965533 0.995326 -0.00206264
0.59855 0.332043 1.76183 -0.855291 0.21565 -0.47114
-0.952792 -0.824529 -1.29261 0.219194 0.72181 0.656464
0.518826 0.572483 1.72592 0.879006 0.318639 -0.354707
0.183452 0.932766 1.56444 -0.891224 -0.453459 0.00973104
-0.346098 -0.00211715 1.43795 -0.158732 0.958345 -0.237444
0.0820892 0.223559 1.88747 -0.14765 0.845247 -0.513573
0.032707 0.186878 1.73578 -0.47026 0.797819 -0.377281
-0.880594 -0.229178 1.15172 -0.56948 0.80775 0.152424
-1.01558 0.762875 0.808153 0.622981 0.522809 0.581863
-0.152614 0.835152 1.58547 -0.473627 0.622718 -0.622816
-0.182692 0.852829 1.58079 -0.256376 0.53425 -0.805511
-1.0239 0.716128 0.832656 0.669925 0.659148 0.341649
-0.863313 -0.204219 1.25002 -0.743585 0.649426 -0.159148
-0.650513 -0.133539 1.40295 -0.56223 0.111129 -0.81948
-0.203216 0.834256 1.58343 -0.256376 0.53425 -0.805511
-1.03684 -0.241853 1.10105 -0.321939 0.946305 0.0293673
-0.163708 0.131338 1.82762 -0.249279 0.964125 -0.0912298
-1.02858 0.678858 0.877971 0.692081 0.676434 0.251913
0.0302508 0.21806 1.89924 -0.54246 0.780338 -0.311141
0.0224533 0.207043 1.99001 -0.525984 0.767219 -0.367035
-1.06066 -0.248648 1.14052 -0.321939 0.946305 0.0293673
0.0556187 0.215601 1.93052 -0.490162 0.870964 -0.0340916
-1.16171 -0.31188 1.08582 -0.548448 0.810697 -0.204879
-0.746807 -0.0726616 1.38735 -0.182201 0.952351 -0.244602
-0.562766 -0.0318925 1.54691 0.0786137 0.996433 -0.0306821
-0.679032 -0.0248599 1.4462 -0.308684 0.497122 -0.810915
-0.345478 0.0485396 1.73669 -0.515634 0.837939 -0.178831
0.0252807 0.232133 2.01556 -0.300636 0.898854 -0.318872
-0.730092 -0.139344 1.45215 -0.0461603 0.994948 0.08915
-0.974858 0.617353 1.00296 0.315543 0.906572 0.280285
-0.711596 0.415514 1.257 0.720123 0.252762 -0.646169
-0.599625 -0.0664586 1.56678 -0.443067 0.873732 -0.200709
-0.940915 -0.24502 1.2019 -0.214779 0.956859 0.195683
0.469251 0.342282 1.78727 -0.554976 -0.100383 -0.825787
0.455901 0.989412 1.07335 -0.584044 0.0849077 -0.807269
0.4356 1.0093 1.05671 -0.702128 -0.00228208 -0.712048
0.420814 1.03106 1.09144 -0.927129 -0.213919 -0.307687
-1.72131 -1.56802 -4.02696 0.185416 0.979858 -0.074152
-1.00026 -0.627217 -1.4762 0.989176 0.0783157 -0.124084
0.225825 0.859571 1.23692 -0.343118 -0.902895 -0.258942
0.591092 0.363976 1.758 -0.214278 -0.190328 -0.95805
0.154618 0.871392 1.28227 -0.336601 0.939952 0.0564822
0.608525 0.378388 1.93352 -0.0109797 0.988212 -0.1527
0.474653 0.41441 1.76791 -0.15492 -0.188954 -0.969689
0.451858 0.467464 1.74259 -0.790247 -0.414536 -0.451298
0.597444 0.353175 1.94104 -0.659965 0.742106 -0.117157
0.46831 0.288381 1.79805 0.0807209 -0.575452 -0.813842
0.587564 0.355996 1.88651 0.00334524 0.955012 -0.296549
-1.07081 -0.932188 -1.44574 0.0763065 0.995646 -0.053543
0.553748 0.355696 1.86612 -0.13031 0.926551 -0.352879
0.526208 0.358983 1.98752 -0.240433 0.819103 -0.520828
-1.29108 -0.278278 -0.653239 0.815934 0.566938 0.113277
0.517048 0.346168 1.88415 -0.606494 0.726163 -0.323809
0.477424 0.335262 1.98799 -0.409542 0.835814 -0.365638
0.401312 0.332594 2.04908 -0.391454 0.867177 -0.307845
-0.347993 -0.0214281 1.37701 0.210577 0.965983 -0.150117
-0.886311 0.768098 0.73963 0.643441 0.695949 0.31881
0.080893 0.188278 1.85346 0.780571 0.564472 -0.268479
0.0563587 0.222489 1.93798 -0.490162 0.870964 -0.0340916
-0.757073 -0.153339 1.21637 -0.201298 0.964239 -0.172403
-0.221442 0.833233 1.587 -0.256376 0.53425 -0.805511
-1.02234 -0.2304 1.15083 -0.248327 0.965469 0.0787645
-0.00261484 0.211902 1.97406 -0.435265 0.840071 -0.323767
-1.14066 0.163254 1.11251 0.607076 0.149549 0.780444
-0.858065 -0.17007 1.32145 -0.631113 0.76061 -0.152217
-1.69951 -0.531932 0.867763 -0.365228 0.93004 0.0404299
-1.65344 -0.574261 0.928567 -0.365228 0.93004 0.0404299
-1.09387 0.655104 1.04857 -0.0555264 -0.62487 -0.778752
0.0368036 0.19076 1.82965 0.658147 0.735817 0.159424
-0.792353 -0.125191 1.57703 -0.544791 0.838201 0.024926
-1.81933 -0.581859 0.878 -0.365228 0.93004 0.0404299
-0.5731 -0.030119 1.59709 -0.351874 0.927683 -0.124858
-0.335986 0.0744713 1.91885 -0.45136 0.833357 -0.319045
-0.657825 -0.0808481 1.57067 -0.520721 0.850125 0.0783406
-0.616035 -0.109737 1.38136 0.372187 0.878717 -0.298886
0.584701 0.380299 1.76487 -0.0342127 -0.353529 -0.934798
0.3944 1.18366 1.16196 -0.797127 -0.18904 -0.573456
0.581087 0.347122 1.86524 0.035226 0.928977 -0.368458
-0.681833 0.342718 0.753418 -0.176319 -0.199141 -0.963978
0.491258 0.953604 1.1496 -0.3524 0.577578 -0.736355
0.411271 1.03976 1.03666 -0.806678 -0.187469 -0.560469
0.33767 0.785262 0.817261 -0.286801 0.952471 -0.102685
0.433407 0.957547 1.26506 -0.900755 0.434106 -0.0139081
0.57547 1.05701 1.64067 0.580928 0.497173 -0.64447
0.601979 1.08783 1.7242 0.489295 -0.43159 -0.757839
-1.15534 -1.10685 -2.66597 0.977063 0.209945 -0.0356414
0.330446 1.04309 1.28059 0.622483 0.669971 -0.404542
-1.07056 -0.938724 -2.18696 0.971986 0.192054 -0.135497
-1.744 -0.988622 -3.38543 -0.78887 -0.062838 0.611339
-2.08028 -1.68599 -4.31234 0.294961 0.864254 -0.407508
-1.64748 -1.43638 -3.43305 -0.742459 0.603726 0.290291
0.308579 1.09727 1.28563 0.701136 0.523871 -0.483702
-2.38434 -1.63268 -4.77464 -0.694826 0.649541 0.308727
-0.187889 0.161706 -0.034854 -0.369094 -0.212479 0.904777
-1.82579 -1.6371 -3.68171 0.19747 0.980226 -0.0127697
0.327739 0.865773 1.09304 0.408707 0.813257 -0.414212
-2.26757 -1.63942 -4.39555 -0.615141 -0.302483 0.728084
0.199217 0.835536 1.01391 0.03024 0.995255 -0.0924863
0.381077 0.895763 1.2665 -0.304625 0.76228 -0.57108
-1.11208 -0.487862 -1.66306 0.818376 0.247947 0.518443
-0.186412 0.166719 -0.0701024 -0.369094 -0.212479 0.904777
0.28888 0.827539 1.10353 -0.37322 0.820678 -0.432658
0.63016 0.378335 1.69887 -0.89535 -0.170809 -0.411306
0.601492 0.363221 1.70864 -0.847893 -0.0218083 -0.529719
0.610912 0.396877 1.74668 -0.870375 -0.0563206 -0.489158
-0.962422 -0.635708 -1.4711 0.947169 0.0805253 -0.310463
0.609481 0.388508 1.76083 -0.431601 -0.21451 -0.876189
-1.08915 -0.816925 -1.18195 0.0895692 0.983011 -0.160206
0.191678 0.884104 1.28738 -0.115784 -0.951557 -0.284837
0.6031 0.383148 1.74413 -0.826015 -0.291769 -0.482255
0.549583 0.328024 1.81472 -0.29826 0.898143 -0.32308
0.417517 0.58066 1.7352 0.142157 0.13907 -0.980026
0.583198 0.37181 1.96166 -0.587807 0.80591 -0.0706528
-1.14363 -0.531085 -0.475158 0.939748 0.339793 -0.0376151
0.569337 0.344029 1.97079 -0.45111 0.530045 -0.71802
0.53583 0.291167 1.84339 -0.116306 0.596672 -0.794012
0.481983 0.320711 1.94242 -0.252492 0.966408 -0.0479919
0.520489 0.363858 2.00975 -0.229296 0.947117 -0.224483
-2.96012 -0.799118 -2.32281 0.14436 -0.862971 0.484192
-0.474762 0.385965 0.836093 0.644 -0.288186 -0.70867
-0.618833 0.41087 0.698534 0.0293807 -0.249096 -0.968033
-0.411258 0.0072557 1.29718 -0.225592 0.954648 0.194309
-0.317582 -0.0190307 1.38809 -0.065905 0.867111 -0.493736
0.391596 0.317626 2.00582 -0.364661 0.918632 -0.152112
-0.51796 -0.0947436 1.2395 0.520153 -0.64795 -0.556419
-0.120819 0.868903 1.55482 -0.486955 0.687865 -0.538253
0.10862 0.188955 1.73936 0.138223 0.902227 -0.408511
0.278266 0.292529 2.05174 -0.119883 0.984263 -0.129828
-0.606709 -0.105577 1.23604 0.0560433 0.994268 -0.0910487
-0.738614 -0.151681 1.16135 -0.219502 0.813596 -0.538405
-0.382329 -0.0117529 1.57653 -0.449338 0.892648 -0.0357036
-1.05796 0.191639 0.939334 -0.458719 0.579561 -0.673562
-0.214842 0.829151 1.59147 -0.256376 0.53425 -0.805511
-0.554587 -0.0946037 1.47707 -0.111965 0.951452 -0.286712
0.276932 0.324536 2.17058 -0.508935 0.443183 -0.737953
-0.900068 0.314697 0.937326 -0.570657 0.190286 -0.798838
-1.25999 -0.0407924 0.742073 0.946603 0.0723777 -0.314173
-0.820686 -0.143151 1.14502 -0.175298 0.810799 -0.558459
-0.978138 0.639832 1.03489 0.315543 0.906572 0.280285
-1.00068 0.643199 1.0378 0.315543 0.906572 0.280285
-0.813034 0.577311 1.25981 0.729911 0.180052 -0.659402
0.0782621 0.149089 1.87532 0.647527 0.75039 -0.132753
-0.724075 -0.119633 1.59314 -0.449833 0.887922 -0.0961524
-0.681207 -0.0751491 1.72355 -0.437349 0.882235 -0.17432
-0.776092 0.548098 1.25972 0.729911 0.180052 -0.659402
0.0261249 0.230852 2.01071 -0.300636 0.898854 -0.318872
0.191507 0.936946 1.58683 -0.891224 -0.453459 0.00973104
-1.53039 -1.44314 -3.36068 -0.678372 0.495036 0.542909
0.2105 0.921301 1.46204 -0.733518 -0.585848 -0.344578
-0.654495 -0.0822064 1.43249 -0.695628 0.37699 -0.61154
-1.69932 -1.6012 -4.15575 -0.317704 0.937184 0.144049
-1.93018 -1.06504 -4.231 -0.561149 0.173844 0.809253
-2.32999 -2.23545 -5.66159 0.810107 -0.581838 0.0720495
-1.64783 -1.63489 -3.85747 0.185416 0.979858 -0.074152
-1.5745 -1.45528 -3.67123 0.593262 -0.696749 0.403214
-2.10932 -1.85588 -4.74871 -0.46051 0.813473 0.355236
-1.51681 -1.53796 -3.25456 -0.678372 0.495036 0.542909
-1.6422 -1.68308 -3.34607 -0.532047 0.798966 0.280321
0.187997 0.843106 1.0812 -0.288011 0.95333 -0.0906131
0.593699 0.444637 1.7576 -0.280071 -0.341664 -0.897121
0.492108 0.569245 1.68856 0.33794 0.208459 -0.917792
0.57569 0.301987 1.78094 -0.714592 -0.135339 -0.686325
0.141529 0.8688 1.26807 -0.446829 0.88871 0.102657
0.224674 0.925344 1.4506 -0.642453 -0.660618 -0.38838
-1.09149 -0.81916 -0.840271 0.142903 0.973008 -0.181201
0.41417 0.616068 1.71307 0.0764258 0.342151 -0.936532
0.515746 0.391769 1.71357 -0.258545 -0.801122 -0.539775
0.531381 0.399533 1.75763 0.355031 0.922515 0.151388
0.0978364 0.851947 1.20719 -0.839458 0.54254 0.0309967
0.147908 0.85908 1.31762 0.348885 0.890542 -0.291914
-1.10017 -0.817977 -0.828588 0.142903 0.973008 -0.181201
0.560793 0.361631 1.90352 0.0230565 0.94439 -0.328019
0.255058 0.895128 1.30079 0.48181 0.25056 -0.83969
-0.463717 0.497459 0.773512 0.65535 -0.228454 -0.719948
0.461234 0.352091 2.03345 -0.536157 0.739852 -0.406394
0.340025 0.253859 1.88817 -0.334258 0.939422 -0.0758722
0.240706 0.896509 1.45217 0.676474 0.59991 -0.427189
0.474916 0.337158 1.98427 -0.409542 0.835814 -0.365638
0.45367 0.381884 2.07466 -0.212543 0.852691 -0.477224
0.44139 0.361711 2.08362 -0.234998 0.837392 -0.493508
0.110051 0.590609 1.7075 0.859558 0.0872926 -0.503527
0.186816 0.258335 1.90919 -0.169764 0.965316 -0.198358
0.372421 0.346081 2.12887 -0.408743 0.909858 -0.0713305
-0.469754 -0.0421713 1.22574 -0.631896 0.723118 0.278941
-0.804169 0.494259 0.624334 0.629692 0.611444 -0.479191
-0.585649 -0.171771 1.17156 -0.580692 0.470233 -0.664588
-0.479171 -0.06449 1.39987 -0.32176 0.943875 -0.0746374
-0.59697 -0.136835 1.18431 0.270273 0.868154 0.416248
-0.998465 0.717809 0.806967 0.775222 -0.578816 0.252988
-1.05389 -0.298524 1.01724 -0.318546 0.890862 -0.323873
-1.01212 0.700828 0.855758 0.660452 0.678484 0.321657
-0.745778 -0.153395 1.14188 -0.219502 0.813596 -0.538405
-1.12286 -0.310714 1.01331 -0.318546 0.890862 -0.323873
0.21961 0.323122 2.23694 -0.245746 0.921961 -0.299328
0.219964 0.326955 2.2506 -0.333707 0.928625 -0.162155
-1.47833 -0.442715 0.969019 -0.365228 0.93004 0.0404299
0.0648557 0.277116 2.10286 -0.218002 0.950015 -0.223489
-1.0717 0.652355 1.08453 0.855577 -0.461483 0.234564
-1.31293 -0.376615 1.21329 -0.431759 0.890832 -0.141429
-1.35428 0.594144 0.841653 0.641591 -0.698688 -0.316537
0.141952 0.267529 1.73689 0.939256 -0.14438 -0.311373
0.597987 0.392303 1.96418 -0.445336 0.869942 0.211842
0.39594 0.351464 1.85524 -0.414047 0.861532 -0.293815
-0.388905 0.537665 1.48404 0.537386 -0.0545796 -0.841568
0.454437 0.874345 1.04014 -0.993323 -0.0665245 0.0942576
0.409964 1.0461 1.14139 -0.92522 0.0262497 -0.378522
0.566492 1.05309 1.63835 0.33553 0.565816 -0.753175
0.345996 0.889849 1.22381 0.68032 0.642665 -0.352345
0.654007 0.331199 1.68111 -0.70587 -0.616072 -0.349575
-1.29158 -0.401395 -2.58233 0.510259 -0.768223 0.386612
0.234068 0.872081 1.14994 0.235294 0.918082 -0.319003
-0.105237 0.457624 -0.0180615 -0.244683 0.419362 0.874223
0.628613 0.935305 1.88411 -0.302781 -0.762274 -0.572068
0.20956 0.855539 1.16247 0.91492 0.173358 -0.364511
0.526075 0.598633 1.71468 -0.844532 -0.533453 -0.0468309
0.613099 0.355734 1.78991 -0.993089 -0.0561422 -0.103069
0.495874 0.581537 1.71233 0.523938 0.724919 -0.447193
-2.35486 -1.63158 -4.57378 -0.61514 -0.302483 0.728084
0.59435 0.327701 1.76235 -0.855291 0.21565 -0.47114
0.117985 0.848958 1.28032 -0.790634 0.604199 0.0992046
0.149587 0.894837 1.40332 -0.638139 0.30429 -0.707239
0.583514 0.382359 1.95549 -0.445336 0.869942 0.211841
0.541309 0.367916 2.06349 0.01716 0.996403 0.0829872
0.422725 0.316804 1.92411 -0.0950547 0.988387 0.118558
0.512206 0.349842 1.96739 -0.310148 0.84513 -0.435389
0.468381 0.359485 2.05323 -0.390086 0.833855 -0.390536
0.492959 0.373478 2.08758 0.226639 0.960664 -0.160496
0.498636 0.358912 2.01262 -0.417481 0.828358 -0.373541
0.432013 0.329827 2.04037 -0.391454 0.867177 -0.307845
-0.661225 0.220336 0.612489 -0.510932 0.583197 -0.63153
0.457815 0.341646 2.02858 -0.410052 0.835581 -0.365597
0.105093 0.860268 1.34168 -0.00283355 0.990895 -0.134608
-0.166371 -0.000760521 1.43809 -0.136061 0.916151 -0.377035
-0.505784 0.341602 0.75272 0.654806 -0.487476 -0.577578
0.402229 0.320662 2.03854 -0.391454 0.867177 -0.307845
0.381503 0.30566 2.03231 -0.491504 0.862605 -0.119735
-0.360766 -0.0218265 1.22825 0.459073 -0.627759 -0.628626
-0.332106 -0.0665102 1.26753 0.840956 0.520773 -0.146931
-0.401433 -0.00125662 1.20176 0.531815 -0.449728 -0.717577
-0.836973 0.660948 0.63909 0.777565 0.555075 -0.29544
0.169515 0.222057 1.92952 -0.123711 0.965143 -0.230641
0.0495965 0.201297 1.80933 -0.419654 0.892935 0.162963
-0.875109 0.728521 0.629314 0.276297 0.79296 -0.543023
-0.556086 -0.0237491 1.10827 0.237834 -0.475156 -0.847149
-0.435747 -0.103427 1.26671 -0.441955 0.883371 0.155982
-0.280749 0.0143874 1.50145 -0.187962 0.955214 -0.228553
-0.529033 -0.190399 1.22144 0.230358 0.472078 -0.850928
-0.947839 0.700772 0.651442 0.276296 0.79296 -0.543024
-0.64435 -0.00704277 1.10774 -0.0227531 -0.550759 -0.834354
-0.312332 -0.0573451 1.37787 -0.108815 0.882855 -0.456866
-0.165869 0.151167 1.72281 -0.25169 0.954163 -0.16194
-0.299316 0.046779 1.58765 -0.434247 0.887831 -0.152269
0.315486 0.299686 1.90772 -0.450882 0.868274 0.206896
-0.166641 0.0943739 1.61294 0.0697621 0.852757 -0.517628
-0.657573 0.015795 1.11215 -0.0227531 -0.550759 -0.834354
-0.938629 0.307657 0.96889 0.642051 -0.0875029 0.761652
-1.12047 -0.338542 0.935179 -0.556441 0.773461 -0.303533
0.240918 0.234426 1.93385 -0.298586 0.921854 -0.247046
-0.646357 -0.0267039 1.46839 0.171701 0.973252 -0.152642
-0.713201 0.429613 1.29736 0.489728 0.087396 -0.867484
-0.720403 0.403695 1.31184 0.489728 0.087396 -0.867484
-0.846454 -0.135357 1.32855 -0.707884 0.702683 0.0716677
-0.729139 0.571193 1.29337 0.729911 0.180052 -0.659402
0.170237 0.295349 2.18913 -0.197259 0.946196 -0.256519
0.217361 0.333356 2.23282 -0.245746 0.921961 -0.299328
0.176215 0.295674 2.01583 -0.096516 0.966819 -0.236527
-0.104647 0.199613 2.11298 -0.339457 0.913132 -0.225741
0.06154 0.290266 2.24651 -0.26946 0.849406 -0.453763
-0.0299998 0.244248 2.07225 -0.36074 0.883081 -0.300057
-1.11082 0.444342 1.06267 -0.469991 0.0559464 -0.880896
0.000329239 0.262481 2.22318 -0.28296 0.9496 -0.134882
-1.14701 0.469169 1.0786 -0.469991 0.0559464 -0.880896
-0.097423 0.232236 2.15907 -0.317144 0.931711 -0.177012
-0.45103 0.0637537 1.89258 -0.379376 0.871394 -0.31104
-0.859793 -0.172762 1.12509 -0.461411 0.533594 -0.708786
-0.619066 -0.0458063 1.65851 -0.51921 0.854519 -0.014805
-0.159037 0.226833 -0.0632481 -0.369094 -0.212479 0.904777
0.429255 0.313754 1.9338 -0.0950547 0.988387 0.118558
-0.383793 0.0385683 1.28453 -0.0139219 0.995227 0.0965864
-0.702558 0.510867 1.26927 0.489728 0.087396 -0.867484
-0.23529 0.275429 1.83627 -0.155001 0.978157 -0.138502
0.114853 0.301921 1.73737 0.954023 -0.130338 -0.269912
0.0611099 0.673338 1.69179 0.22356 0.147558 -0.963456
0.570634 0.365149 1.9794 -0.571752 0.443571 -0.690177
-0.289332 -0.0592142 1.3078 -0.0200283 0.997145 0.0728021
-0.434128 0.00460386 1.16069 0.730254 -0.481147 -0.485002
0.208681 0.870143 1.27188 0.346457 0.753063 -0.559342
-1.18837 -0.685744 -2.5595 0.940573 0.327099 -0.0912677
-1.31411 -0.863689 -2.99248 0.994065 -0.107395 0.0173489
-0.996622 -0.870378 -2.09485 0.988075 0.084246 -0.128881
0.218374 0.859777 1.27645 0.471132 0.881894 0.0172496
0.507524 0.549283 1.70078 0.426725 0.182954 -0.885683
0.474464 0.317231 1.78646 -0.401534 -0.166187 -0.90064
-0.572536 0.0642872 1.0637 -0.0126886 0.950189 -0.311417
-0.5607 -0.104305 0.97039 0.936233 0.312494 0.160671
-0.580372 0.383349 0.723131 4.02725e-05 -0.299643 -0.954051
-0.683058 -0.0739764 1.17442 0.432784 -0.608949 -0.66474
-0.483493 -0.0534935 1.1169 0.482732 -0.55573 -0.676856
-0.862118 0.668796 0.607181 0.457676 0.702893 -0.544495
-1.94258 -0.220917 -1.32307 0.753377 0.273943 0.597812
-0.295401 -0.102188 1.28116 0.23071 0.5882 -0.775109
-0.245665 -0.0257372 1.29702 0.261823 -0.104921 -0.959396
-0.30882 0.0102566 1.70243 -0.414478 0.888655 -0.196215
-0.324285 0.0187057 1.27562 -0.0603914 -0.359933 -0.931021
0.455591 0.364631 2.0877 -0.212543 0.852691 -0.477224
-0.316117 -0.00199423 1.25928 -0.0603914 -0.359933 -0.931021
-0.55305 -0.0905201 1.1467 -0.600914 0.771513 0.208974
-0.700179 0.519866 1.29267 0.489728 0.087396 -0.867484
-1.01084 -0.215656 0.982539 -0.412483 0.903329 -0.117702
0.0369854 0.860949 1.35552 0.040402 0.997407 -0.0595558
-1.39995 -1.47384 -3.24632 -0.784172 0.359339 0.505914
-0.0306192 0.150587 1.69828 -0.171322 0.829471 -0.531626
-1.06509 -0.394592 0.838455 -0.556441 0.773461 -0.303533
-0.634067 0.443941 0.683214 0.269817 -0.295134 -0.916567
-0.527442 -0.161205 0.886047 0.980818 0.00425513 0.194878
-0.353478 0.407887 0.895617 0.604514 -0.232673 -0.761857
-0.52173 -0.0737241 0.958379 0.775096 0.621175 -0.115617
-0.513329 -0.115097 1.17931 -0.683638 0.728269 -0.0475652
0.11516 0.188272 1.71004 0.196136 0.657246 -0.727708
-0.908335 0.601049 0.561071 0.148935 0.435542 -0.887762
-0.825055 -0.115561 1.22346 -0.366057 0.918883 -0.147164
-0.76193 0.47057 0.655283 0.224065 0.898441 0.377623
-0.587189 -0.276068 1.12481 0.160645 0.447853 -0.879557
0.239571 0.866551 1.71334 -0.53656 -0.8377 -0.101792
-1.44206 -0.0410135 -1.30665 0.273779 0.959758 0.0625289
-1.08875 0.613389 0.668912 0.560665 -0.693627 0.452257
-1.78266 -1.56539 -3.58901 -0.325472 0.931302 -0.163538
-0.979309 0.625718 0.512171 0.0153703 0.795022 -0.606386
-2.5474 -2.27287 -7.04926 -0.866707 0.413116 0.279561
-2.02038 -1.89891 -5.744 0.755306 -0.638496 0.147768
-3.22564 -1.97635 -8.60166 -0.880072 0.370617 0.296843
-2.85834 -0.818208 -8.10388 -0.880072 0.370617 0.296843
0.554243 -0.0568488 -4.47789 -0.366069 0.914412 0.172752
1.85985 0.606191 -2.34832 -0.983015 0.110798 -0.146307
0.902554 1.1987 1.78848 -0.428549 0.685274 -0.588851
0.784645 1.22186 1.90461 -0.849829 -0.387941 0.356781
0.780962 1.19904 1.91659 0.649524 0.0191636 -0.760099
0.865656 1.22789 1.91482 -0.281881 0.375211 -0.88304
0.818321 1.24238 1.89217 -0.313887 0.914926 -0.253743
0.820953 1.24673 1.90006 -0.313887 0.914926 -0.253743
0.920002 1.17692 1.69502 -0.998452 0.0419315 -0.036541
0.908271 1.18507 1.68465 -0.90313 0.0110586 0.429224
0.782139 1.22493 1.85 -0.823364 -0.566801 0.0284218
0.831667 1.23321 1.84395 0.197619 0.888226 -0.41473
0.831648 1.22703 1.84399 0.197619 0.888226 -0.41473
0.831627 1.24558 1.86365 0.434086 0.806559 -0.401287
0.868056 1.21188 1.78101 -0.135995 0.896901 -0.420801
0.871645 1.26146 1.88933 -0.214112 0.810394 -0.54536
0.828257 1.2506 1.89071 -0.313887 0.914926 -0.253743
0.840307 1.22426 1.91082 0.0855653 0.75953 -0.644821
0.841061 1.22154 1.9179 -0.197396 0.109735 -0.974163
0.865692 1.23606 1.91079 -0.277434 0.171846 -0.945251
0.906203 1.27723 1.91594 -0.942575 -0.0884944 0.322059
0.931102 1.24602 1.93375 0.279022 -0.744353 -0.606701
1.00832 1.21214 1.6504 -0.237932 0.930926 -0.277066
0.911545 1.22221 1.92373 0.741548 0.199625 -0.640512
0.903163 1.26859 1.91587 -0.942575 -0.0884944 0.322059
0.917812 1.26966 1.86071 -0.0228042 0.908455 -0.417361
0.91888 1.25559 1.85598 0.0546674 0.785606 -0.616307
1.01568 1.21356 1.64559 -0.221292 0.935119 -0.276735
0.909264 1.26072 1.86218 -0.541953 0.782985 -0.305323
1.00243 1.23525 1.68994 -0.297675 0.895712 -0.330288
0.895334 1.27388 1.90521 -0.961125 0.150588 -0.231437
0.905191 1.28127 1.90858 -0.97552 -0.0232126 -0.218681
1.78812 1.14336 -1.07765 0.0841548 0.368365 0.925865
0.917319 1.26384 1.91921 -0.925023 -0.285606 0.250521
0.775769 1.22751 1.90173 -0.8972 -0.22199 0.381777
0.777254 1.22491 1.89941 -0.8972 -0.22199 0.381777
0.785998 1.19095 1.91073 0.223134 0.461281 -0.858738
0.801662 1.20021 1.91534 0.163357 -0.0162465 -0.986433
0.853495 1.20195 1.7791 0.1825 0.76109 -0.622444
0.895943 1.21427 1.77575 0.0477833 0.753047 -0.656229
0.881921 1.205 1.75622 0.208346 0.917255 -0.339463
0.840178 1.22993 1.91694 0.0771092 0.824456 -0.560648
0.868553 1.25995 1.90139 -0.382565 0.923893 0.0081583
0.860833 1.22994 1.91297 -0.126472 0.878613 -0.460483
0.770706 1.23334 1.89419 -0.134041 -0.374041 -0.917674
0.838039 1.24111 1.90568 -0.635086 -0.612727 -0.470352
0.842379 1.25436 1.89704 -0.185701 0.939776 -0.286943
0.856601 1.25476 1.88535 -0.12258 0.826789 -0.548993
1.06447 1.21337 1.74632 -0.674189 -0.711234 -0.199035
0.917299 1.27427 1.88483 -0.733082 0.491447 -0.470182
0.990058 1.281 1.89003 -0.405866 0.451088 -0.794854
2.5619 0.979914 -1.93487 0.323496 -0.549428 0.770376
0.977717 1.24867 1.93711 -0.325909 0.113751 -0.938533
2.63558 0.958243 -2.14858 -0.376433 0.872363 -0.311899
2.66737 1.05252 -1.90821 0.278827 -0.419915 0.863671
0.908577 1.25647 1.91034 -0.823965 -0.39625 0.405052
0.789385 1.16857 1.85808 -0.670122 0.583234 -0.459101
0.923156 1.27154 1.8845 -0.733082 0.491447 -0.470182
0.800305 1.19654 1.91378 0.0898436 0.265984 -0.959781
0.779751 1.20912 1.83633 -0.890863 -0.320661 0.321776
0.781399 1.22118 1.8401 -0.80592 -0.460811 0.37168
0.908692 1.18694 1.67462 -0.904749 0.421128 -0.0638838
0.8727 1.25639 1.85595 -0.138086 0.927791 -0.346607
0.943156 1.20569 1.69383 -0.623073 0.776827 -0.0912133
1.06338 1.2461 1.73003 -0.978515 0.150678 -0.140727
0.856768 1.21005 1.77732 0.1825 0.76109 -0.622444
0.854158 1.20424 1.7597 -0.192084 0.932856 -0.304769
0.853149 1.19928 1.74218 0.315237 0.853955 -0.413988
0.846477 1.20382 1.76736 -0.468645 0.85227 -0.232396
0.957924 1.25854 1.93717 0.289512 -0.210149 -0.93382
0.879959 1.16338 1.626 0.10735 0.941217 -0.320292
0.78139 1.18629 1.8182 0.127454 -0.383735 -0.914605
1.41176 0.900348 -1.07102 -0.785991 -0.552991 -0.27644
0.924869 1.19354 1.67299 -0.503788 0.863204 -0.0328146
1.58952 0.776296 -1.55706 0.0530085 0.997282 -0.0511792
0.892715 1.21723 1.80949 -0.191121 0.875206 -0.444396
0.961063 1.28907 1.91634 -0.109423 -0.634707 -0.764966
2.63589 1.01552 -1.9913 0.47604 -0.538621 0.695179
2.47066 0.921948 -1.29183 0.00555964 -0.972693 0.232029
2.53323 1.01657 -1.41458 -0.494556 -0.720953 -0.485429
1.15844 0.940341 -0.742437 0.0179378 0.749468 0.661797
1.17035 1.01613 -0.88305 0.544538 0.248717 0.80101
1.53533 0.97679 0.260679 -0.17413 0.953226 -0.247062
1.6393 0.945674 -0.0683813 -0.263628 0.92747 -0.265139
1.57584 0.941955 0.102576 -0.26337 0.946353 -0.187222
1.62573 0.936051 -0.49398 -0.252684 0.957228 -0.140944
1.96412 1.0237 -0.0380416 -0.0923633 0.992656 -0.0781239
2.06528 1.01244 -0.373466 -0.302097 0.947152 -0.107888
2.665 0.858236 -1.5126 -0.855617 0.247042 -0.454852
1.97731 1.00935 -0.230057 -0.276417 0.961037 0.00116207
2.26173 0.913863 -1.38675 -0.819971 -0.303322 -0.485431
2.72498 1.13457 -1.89027 0.153277 -0.852655 0.499485
2.27928 0.987687 -0.599257 -0.310285 0.91245 -0.266756
2.54899 0.789665 -1.51962 -0.486862 0.529859 -0.694417
2.05084 0.882789 -0.704088 -0.281921 0.942567 -0.17913
1.14326 1.20117 1.61933 -0.405383 0.828029 -0.387341
0.967042 1.36701 1.86437 0.458143 0.101389 -0.883077
1.05234 1.24659 1.73832 -0.421092 -0.151295 -0.894311
1.05754 1.21645 1.74813 -0.269867 -0.771627 -0.575989
0.976 1.37408 1.85125 0.458143 0.101389 -0.883077
0.769137 1.2418 1.89589 -0.186451 -0.18636 -0.964627
0.757965 1.15648 1.86915 -0.990958 0.0378824 -0.128711
0.983576 1.32612 1.86894 -0.0786931 -0.491876 -0.867102
0.787833 1.20863 1.79846 -0.992841 0.106155 -0.0547503
1.01044 1.2474 1.7442 0.198496 0.90528 -0.37559
0.942929 1.27849 1.9242 0.52641 -0.713335 -0.462651
0.99804 1.28412 1.91284 0.240156 -0.507088 -0.82776
0.61501 1.46928 1.76811 -0.850922 -0.485058 0.201619
1.64343 1.00013 0.238466 -0.249581 0.935008 -0.251932
1.86606 1.00735 -0.0538112 -0.209231 0.960125 -0.185426
1.63371 1.00797 0.278032 -0.249581 0.935008 -0.251932
1.79206 0.989053 0.0221056 -0.308347 0.929683 -0.201526
1.76611 0.997015 0.0196346 -0.308347 0.929683 -0.201526
2.51592 0.763937 -1.61971 0.118407 -0.925864 0.358825
1.98213 0.752467 -1.28179 -0.422197 0.757308 -0.49823
1.71863 0.986143 0.0980302 -0.255854 0.948001 -0.189294
2.28586 1.02295 -1.39808 -0.108872 -0.993161 0.0421732
2.2701 0.957197 -1.28077 -0.615992 -0.547431 -0.566456
1.75984 0.970332 -0.0469333 -0.282102 0.933186 -0.222672
2.21709 0.928159 -1.23825 -0.952534 -0.0480896 -0.300608
2.884 1.0712 -2.01266 0.59676 0.161043 0.786094
2.05598 1.00654 -0.0694718 -0.0341244 0.998631 -0.0396506
2.8272 1.10573 -1.96207 0.257107 -0.550264 0.794421
0.844555 1.19157 1.73032 0.0154066 0.941067 -0.33787
2.54228 1.13428 -1.83099 0.383633 -0.804158 0.454044
1.70426 1.14836 0.836735 -0.180036 0.969878 -0.164085
0.861057 1.1852 1.71069 0.0890948 0.944211 -0.31706
1.04949 1.26985 1.73011 -0.386602 0.166146 -0.907157
1.87161 1.02423 -0.0295984 -0.209231 0.960125 -0.185426
2.0784 1.01288 -0.133596 -0.0817591 0.99662 0.00803145
2.70824 0.879595 -1.57812 -0.605314 0.182605 -0.774758
2.74026 0.976121 -2.15618 0.162758 -0.898779 0.407069
2.44036 0.793387 -1.48352 -0.151529 -0.87989 0.450369
0.603919 1.44128 1.70697 -0.850922 -0.485058 0.201619
2.06175 0.990962 -0.37536 -0.302097 0.947152 -0.107888
2.61872 1.01648 -1.5716 -0.611939 -0.452634 -0.648578
2.76992 1.02549 -2.0552 0.0979757 -0.863081 0.495471
2.45238 0.903364 -1.03627 -0.00935851 0.999379 0.033962
2.39404 0.952116 -1.35 -0.103678 0.994237 -0.0272553
1.95622 0.887825 -0.594003 -0.301609 0.912146 -0.277527
0.841845 1.2526 1.88702 -0.233958 0.845465 -0.480055
2.20588 0.874089 -1.22747 -0.0666335 -0.988493 0.135801
0.789835 1.19778 1.79752 -0.992841 0.106155 -0.0547503
0.881236 1.19874 1.7435 -0.362263 -0.8917 0.271362
0.914146 1.24456 1.93512 0.83127 0.0258994 -0.555265
