ply
format ascii 1.0
element vertex 867
property float x
property float y
property float z
property float nx
property float ny
property float nz
end_header
-0.87981 0.00118649 -1.52435 -0.159545 -0.98037 0.115843
-0.674536 -0.13136 -2.51216 0.252908 0.657277 0.709946
-0.581314 -0.181063 -2.6751 0.639022 0.680656 0.358271
-0.455241 -0.372927 -2.88188 -0.528383 -0.834998 0.15359
-0.621082 -0.209113 -2.61085 0.252908 0.657277 0.709946
-1.00323 -0.0116601 -2.21601 -0.628198 0.286808 0.723262
-0.763402 -0.224211 -2.66305 0.252908 0.657277 0.709946
-0.778904 -0.165618 -2.68283 0.16183 0.717034 0.677992
-1.27391 -0.0584218 -1.90392 -0.399019 -0.909377 0.117545
-1.76279 0.528533 1.46976 -0.229635 0.911355 -0.341614
-1.91062 -0.280782 1.57737 -0.775923 -0.593472 -0.213857
-1.9993 0.0917975 -1.24572 -0.873906 -0.48573 0.0188089
-1.98846 -0.196234 -2.01084 -0.137959 -0.94825 0.285988
-1.70145 0.614638 1.59322 -0.228739 -0.505101 -0.832197
-1.67027 0.609619 1.66986 -0.831788 0.54095 0.124507
-1.60568 0.582055 1.46514 -0.448931 -0.874649 0.182896
-1.61091 0.563253 1.42248 -0.754816 -0.19251 0.627051
-1.61931 0.610126 1.50632 -0.452438 -0.72986 -0.512449
-1.67082 0.636503 1.65768 -0.912074 0.315397 0.262003
-1.68397 0.614771 1.65486 -0.882108 0.366333 0.296117
-2.24372 0.363597 0.949174 -0.587885 -0.740693 0.325214
-2.16696 0.342645 1.0122 -0.541866 -0.792686 -0.279338
-2.26531 0.463261 0.928348 0.559137 -0.177925 -0.809758
-2.27337 0.518895 0.780034 -0.970407 -0.185099 0.155074
-2.20786 0.375753 0.968685 -0.701438 0.0604577 0.710162
-2.26418 0.572912 0.943759 -0.894787 0.320511 -0.310851
-2.72637 -0.82781 -2.49263 0.166331 0.966946 -0.193259
-2.22303 0.438844 0.965257 0.350758 0.461973 -0.814586
-1.96432 0.439505 1.45445 0.268899 0.523369 -0.808565
-2.07672 -0.129807 1.67833 -0.854167 -0.518482 0.0396816
-2.18249 0.38395 0.823731 -0.103407 0.989551 0.100479
-1.97277 0.356785 1.12428 -0.375686 0.906107 -0.194499
-1.13489 0.0181775 -2.41213 -0.816324 0.38284 -0.432492
-2.38158 -0.14164 -0.493941 -0.160548 0.915578 -0.368702
-2.90684 -0.807371 -2.56154 0.440348 0.876515 -0.19446
-2.31633 0.0881886 0.122197 -0.112222 0.931623 -0.345665
-2.74055 0.292009 -0.268105 0.555191 -0.807305 0.200055
-2.13257 0.310991 1.01605 0.163323 0.561979 -0.810867
-2.85224 0.32189 -0.408229 0.160632 0.793892 0.586458
-2.181 0.323862 1.01964 -0.375433 -0.467229 -0.800467
-2.78386 0.326568 -0.416494 0.160632 0.793892 0.586458
-1.63044 0.265324 -1.40043 0.13642 0.424709 0.894993
-0.486097 -0.157767 -3.75138 -0.563804 -0.816825 -0.122158
-2.8243 0.194078 -0.271423 0.783119 -0.311506 0.538227
-1.94951 0.451964 1.46901 0.268899 0.523369 -0.808565
-2.15881 0.384671 0.911945 -0.932532 -0.128306 -0.337524
-1.38275 0.242487 -0.10969 -0.237885 0.935053 -0.262843
-0.955247 0.102062 -2.33676 0.0219826 0.982019 0.187498
-1.25594 0.181002 -0.53297 -0.205544 0.956687 -0.206161
-1.32527 0.172442 -0.488554 -0.260327 0.938833 -0.225439
-0.977953 0.07631 -2.47967 0.299845 -0.801817 0.516897
-0.926337 -0.196779 -2.16936 -0.790976 0.188008 -0.582245
-1.07975 -0.0153048 -1.80524 0.085323 0.996352 -0.00164481
-1.21848 0.00170475 -1.72402 0.249054 0.96728 0.0483925
-2.37679 0.58724 0.606987 -0.878547 -0.424893 0.218222
-1.93471 -0.237991 1.62049 -0.658449 -0.607053 -0.444895
-1.2058 0.170064 -0.717818 -0.231338 0.967345 -0.103571
-1.26902 0.0481366 -1.68257 0.40197 0.881503 0.247734
-1.08462 0.0705117 -2.27129 -0.436499 0.878989 0.191955
-1.35873 0.212272 -0.285302 -0.220547 0.952756 -0.20884
-1.01124 -0.15107 -1.95024 0.413295 -0.695131 0.588201
-1.10013 0.101965 -2.46693 0.329091 -0.749938 0.57384
-0.824941 -0.208395 -2.29981 -0.716717 0.479953 -0.505926
-1.93158 -0.198521 1.61864 -0.928955 -0.32943 -0.168873
-1.61489 0.63045 1.65344 -0.377266 -0.0799778 -0.922645
-1.38213 0.211615 -0.192779 -0.23669 0.947513 -0.214936
-1.48338 0.238161 -0.0755357 0.0211247 -0.883057 0.46879
-1.30909 0.173717 -0.46745 -0.260327 0.938833 -0.225439
-1.59726 0.599197 1.51735 0.613081 -0.16828 -0.771889
-1.62599 0.610274 1.52163 -0.852351 -0.387887 -0.350773
-1.29219 0.0199827 -1.149 -0.246524 0.951321 -0.184972
-1.34706 0.130177 -0.558904 -0.296327 0.916455 -0.268886
-1.54104 0.110676 -0.43042 -0.101774 0.939787 -0.326256
-1.47524 0.101397 -0.571181 -0.320783 0.867659 -0.379823
-1.49532 0.175658 -0.28519 -0.265416 0.944249 -0.194802
-1.60002 0.675537 1.62139 -0.334657 0.646662 -0.685444
-1.59411 0.649871 1.64224 -0.202692 0.0757964 -0.976305
-1.58978 0.635876 1.64523 -0.139279 -0.0575965 -0.988577
-1.42664 0.579247 1.27582 -0.274637 0.904253 -0.326958
-1.55699 0.681107 1.61855 -0.922749 -0.044378 0.382838
-1.55479 0.678537 1.62559 -0.865289 -0.28121 0.414964
-1.51529 0.624316 1.38508 -0.193514 0.913516 -0.357828
-1.55018 0.684095 1.61714 -0.784954 0.607555 0.121339
-1.55565 0.658739 1.57057 -0.225433 0.827973 -0.513459
-1.42821 0.577789 1.2676 -0.274637 0.904253 -0.326958
-1.4685 0.633433 1.41135 -0.961131 0.242401 0.132166
-1.55313 0.672987 1.62826 -0.865289 -0.28121 0.414964
-1.53298 0.63367 1.63962 -0.286911 0.198735 -0.937116
-1.54973 0.679239 1.58771 -0.07308 0.872603 -0.482932
-1.55746 0.670864 1.61515 -0.796358 0.0543774 0.602376
-1.49302 0.694874 1.61466 -0.537355 0.241573 -0.808017
-1.47444 0.670255 1.57308 -0.894357 -0.145421 0.423058
-1.5965 0.661702 1.6091 -0.0410235 0.898623 -0.4368
-1.48828 0.648791 1.62886 -0.135137 0.0300397 -0.990372
-1.474 0.64701 1.62689 -0.630274 0.542704 -0.555182
-1.54683 0.623746 1.40376 -0.318711 0.904769 -0.282518
-1.51208 0.677329 1.62014 -0.203717 -0.344557 -0.916395
-1.45594 0.659618 1.60218 -0.827616 0.491601 0.270888
-1.38766 0.660302 1.55289 -0.522498 0.785561 -0.331496
-1.56996 0.66454 1.56728 -0.437669 0.749896 -0.496086
-1.41022 0.654858 1.58338 -0.889221 0.321194 -0.325762
-1.44583 0.717472 1.58375 -0.786427 0.248372 -0.565548
-1.5182 0.641297 1.63415 -0.20428 0.159569 -0.965819
-1.36267 0.00459838 -1.35004 -0.380236 0.918717 0.106677
-1.6308 0.592097 1.37741 -0.573642 0.601688 0.555794
-1.5836 0.580612 1.47185 -0.561616 -0.827381 0.00536956
-1.39079 0.652356 1.55638 -0.502765 0.712808 -0.489011
-1.58268 0.620997 1.42022 -0.351434 0.932808 -0.0797729
-1.56633 0.667021 1.60514 -0.222191 0.974876 -0.0157725
-1.57842 0.651709 1.63262 -0.99866 0.0509127 0.00925343
-1.53537 0.619699 1.38141 -0.186139 0.933985 -0.304997
-1.59884 0.664923 1.60256 0.127619 0.910688 -0.392887
-1.41671 0.0543725 -0.900237 -0.195799 0.956682 -0.215457
-1.60849 0.658059 1.57811 -0.182473 0.830972 -0.525537
-1.58864 0.626612 1.64813 -0.556084 0.167406 -0.814092
-1.54899 0.670918 1.56625 -0.0679643 0.727959 -0.682244
-1.34179 -0.196028 -2.0853 0.0415472 -0.750585 0.659466
-1.40705 0.642884 1.59982 -0.150317 0.898093 -0.413321
-1.45142 0.655293 1.60294 -0.370465 0.541851 -0.754422
-1.60467 0.661183 1.58576 -0.223586 0.830467 -0.51023
-1.53816 0.623779 1.40922 -0.313563 0.917251 -0.245618
-1.11792 -0.0691158 -1.98498 0.11839 -0.701274 0.702993
-1.54087 0.629736 1.64156 0.0663749 0.21344 -0.974699
-1.56706 0.625326 1.42807 -0.386719 0.921049 0.046015
-1.22295 0.736203 1.74006 -0.25416 0.953639 -0.161168
-1.61042 0.663787 1.59115 -0.00669608 -0.97891 0.204182
-1.59063 0.658405 1.59036 -0.358041 0.920236 -0.158024
-1.53705 0.666685 1.62955 -0.721761 0.246564 0.646736
-1.48003 0.638826 1.63069 -0.563381 0.630172 -0.534309
-1.5339 0.633836 1.43127 -0.217458 0.907058 -0.360497
-1.52912 0.633728 1.42122 -0.213669 0.96027 -0.179517
-1.60251 0.608408 1.50304 0.189482 -0.401038 -0.896251
-1.51567 0.679011 1.61989 0.431717 -0.818373 -0.379324
0.402914 -1.19615 -3.55751 -0.740332 -0.635089 -0.220388
-1.54595 0.621315 1.39373 -0.242811 0.955939 -0.164998
-1.57604 0.668976 1.58236 -0.224069 0.900893 -0.371733
-1.50823 0.636807 1.63522 -0.264008 0.334609 -0.90462
-1.60322 0.64957 1.5666 -0.201359 0.833971 -0.513757
0.342067 -0.430628 -5.06325 -0.0633773 0.995562 -0.0695668
-1.61285 0.658227 1.63793 -0.460572 -0.857767 0.228275
-1.16215 0.143318 -0.907306 -0.418454 0.888435 -0.188627
-1.44091 0.723613 1.57532 -0.786427 0.248372 -0.565548
-1.51821 0.631819 1.42999 -0.249709 0.901271 -0.354057
-1.5054 0.636529 1.42275 -0.0522604 0.908365 -0.414901
-1.55596 0.622407 1.40814 -0.281111 0.912376 -0.297569
-1.62139 0.664193 1.61536 -0.140622 -0.984672 0.103182
-1.62161 0.608263 1.50128 -0.102075 -0.985166 0.137942
0.990458 -0.940004 -6.93272 -0.384056 0.901027 -0.201624
-1.40853 0.57645 1.28364 -0.43476 0.835454 -0.336155
-1.62537 0.66871 1.62442 -0.824666 -0.481518 0.296759
-1.27011 0.106493 -0.666427 -0.245455 0.958506 -0.144975
-1.47359 0.623678 1.39883 -0.0954074 0.962927 -0.252327
-1.48784 0.62224 1.37117 0.004944 -0.978347 0.206914
-1.66145 0.59923 1.47372 0.0506882 0.918006 -0.393314
-1.66976 0.593129 1.45739 -0.310438 0.877734 -0.364982
-1.66988 0.601234 1.47307 -0.166555 0.958284 -0.232273
-1.1627 0.168924 -0.771524 -0.244283 0.963239 -0.111785
-1.61958 0.569377 1.40155 -0.639802 -0.743125 0.196006
-1.61885 0.604604 1.48154 -0.17565 -0.922646 0.343323
-1.44027 0.572218 1.29944 -0.476439 0.874594 -0.0899481
-1.61806 0.561452 1.4192 -0.754816 -0.19251 0.627051
-1.5174 0.625017 1.38265 -0.193514 0.913516 -0.357828
-1.59195 0.670015 1.60094 -0.894538 0.42356 0.142824
-1.5594 0.665543 1.5589 -0.225433 0.827973 -0.513459
-1.52461 0.616871 1.36098 -0.233847 0.921027 -0.311489
-1.6163 0.613034 1.49942 -0.0836238 -0.996135 0.0268701
-1.62823 0.603513 1.4773 -0.0738664 0.952053 -0.296881
-1.60029 0.676185 1.62031 -0.334657 0.646662 -0.685444
-1.52494 0.624014 1.39643 -0.286935 0.89891 -0.331103
-1.63071 0.642837 1.64229 -0.0358714 -0.681008 -0.731396
-1.62243 0.664561 1.60417 -0.0759832 0.96632 -0.245871
-1.55209 0.68237 1.60794 -0.792801 0.603618 -0.0843313
-1.53976 0.613757 1.36563 -0.0904893 -0.956262 0.278162
-1.50812 0.618903 1.35087 -0.219764 0.927245 -0.303182
-1.60354 0.586886 1.51334 -0.434843 -0.634246 -0.639253
-1.46438 0.677887 1.59241 -0.894357 -0.145421 0.423058
-1.58273 0.609674 1.38571 -0.331155 0.924242 -0.190035
-1.45007 0.766136 1.55675 0.238312 0.00791014 -0.971156
-1.698 0.567884 1.3893 -0.0656595 0.915161 -0.397705
-1.46925 0.6457 1.59319 -0.814912 0.57734 0.0509571
-1.43494 0.733071 1.562 -0.224275 -0.122056 -0.966852
-1.47368 0.774202 1.53228 0.182827 -0.0128003 -0.983062
-1.3745 0.660989 1.5479 0.00639599 -0.882866 -0.469582
-1.65411 0.652945 1.5777 -0.54213 0.839885 -0.0262216
-1.55096 0.684524 1.62137 -0.9755 -0.0977273 0.197102
-1.64539 0.669703 1.63689 -0.963078 -0.0750337 -0.258556
-1.63256 0.655575 1.58163 -0.152424 0.939775 -0.305926
-1.62253 0.661903 1.60234 -0.0759832 0.96632 -0.245871
-1.65394 0.605179 1.49 0.142974 0.908052 -0.3937
-1.60898 0.589647 1.51315 -0.434843 -0.634246 -0.639253
-1.63878 0.613698 1.51184 0.243985 0.847691 -0.471053
-1.62922 0.663224 1.61214 0.00801859 0.926967 -0.375056
-1.61138 0.606155 1.50038 -0.929691 -0.240912 0.278631
-1.65602 0.618519 1.51803 -0.52165 0.84148 -0.140686
-1.66308 0.610776 1.50242 -0.00036454 0.944605 -0.32821
-1.65324 0.616961 1.50718 -0.0931117 0.95675 -0.275608
-1.6673 0.612485 1.51492 -0.439534 0.887825 -0.136296
-1.1474 0.0474384 -1.26843 -0.205537 0.950438 -0.233286
-1.46913 0.201564 -0.164601 -0.163175 0.94551 -0.281752
-1.57453 -0.246491 -1.8365 -0.478116 0.852184 -0.212574
-1.59686 0.0181769 -0.74315 -0.280567 0.94537 -0.166003
-1.58117 -0.219378 -1.67642 -0.474983 0.776102 -0.414797
-1.61526 0.566543 1.41044 -0.929742 -0.202817 0.307318
-1.63335 0.579411 1.42339 -0.872418 -0.231958 0.430213
-1.66705 0.57037 1.40423 0.0539818 0.946041 -0.319519
-1.63169 0.571609 1.40727 -0.639802 -0.743125 0.196006
-1.6228 0.549044 1.41488 -0.639802 -0.743125 0.196006
-1.6708 0.584356 1.44179 -0.367977 0.91667 -0.155911
-1.68807 0.582811 1.42189 0.0949472 0.946939 -0.30707
-1.68011 0.585179 1.43586 0.0687199 0.948552 -0.309074
-1.66187 0.607144 1.48903 0.226387 0.837461 -0.497401
-1.43078 -0.0894342 -1.34108 -0.380236 0.918717 0.106677
-1.63511 -0.260084 -1.8226 -0.00675533 0.994754 -0.102076
-1.71436 0.330312 -0.0407184 0.27118 -0.326734 0.905376
-1.71672 0.311325 -0.0471231 0.27118 -0.326734 0.905376
-1.6699 -0.419766 -2.64089 -0.364061 -0.908676 0.204372
-1.65541 0.150328 -0.149928 0.103474 -0.195171 0.975296
-1.63826 0.102725 -0.384972 -0.0926698 0.94226 -0.321806
-1.49035 0.138222 -0.439854 -0.265623 0.924722 -0.272643
-1.67266 0.297068 -0.0594994 -0.68835 -0.45623 0.563941
-1.78191 0.267707 0.458358 -0.215115 0.958649 -0.186327
-1.80614 0.125349 -0.12922 -0.56825 0.811664 0.135253
-1.57132 -0.126104 -1.269 -0.443084 0.89385 -0.0686209
-1.83286 0.159784 -0.267296 -0.621728 0.78182 -0.04703
-1.06596 -0.227218 -2.18764 -0.821395 0.520791 -0.232565
-1.50667 -0.1186 -1.48142 -0.471378 0.844542 -0.25407
-1.43276 0.575584 1.28848 -0.371857 0.924907 -0.0791792
-1.4523 0.565026 1.27095 -0.274637 0.904253 -0.326958
-1.46978 0.629685 1.41628 -0.757142 -0.648767 0.0763977
-1.62883 0.574957 1.40063 0.585641 0.251557 -0.770547
-1.65327 0.566371 1.38985 -0.33926 0.940664 -0.00736887
-1.54013 0.609091 1.34688 -0.0326853 -0.978168 0.20523
-1.64601 0.572681 1.39953 -0.0815237 -0.975312 0.205234
-1.67905 0.554229 1.35613 0.0322309 0.878445 -0.476755
-1.66581 0.552994 1.35815 0.190825 0.81379 -0.548937
-1.61585 0.599801 1.38675 0.295221 -0.768679 -0.56743
-1.68813 0.557271 1.35279 0.0699577 0.930976 -0.358315
-1.47225 0.621352 1.4155 -0.757141 -0.648769 0.0763968
-1.50881 0.61063 1.33751 -0.196273 0.958532 -0.206625
-1.66622 0.142248 -0.116723 0.103473 -0.195171 0.975296
-1.67633 0.544824 1.33761 0.135947 0.873421 -0.467605
-1.71872 0.24097 -0.131109 -0.688349 -0.456231 0.563941
-1.67881 0.238416 -0.143681 -0.688349 -0.456231 0.563941
-1.68993 0.212549 -0.148177 0.280386 -0.303691 0.91058
-1.81637 0.135373 -0.450792 -0.402257 0.91471 0.0386687
-1.28132 0.0354659 -1.10377 -0.239068 0.95108 -0.195688
-1.6084 0.19819 -0.103046 -0.144444 -0.243526 0.959078
-1.69033 0.219488 -0.472222 0.200104 -0.288819 0.936238
-1.70232 0.147365 -0.0824476 0.103474 -0.195171 0.975296
-1.65242 0.562901 1.37838 0.124203 0.8687 -0.479513
-1.52117 0.631408 1.40425 -0.209813 0.955719 -0.206349
-1.62056 0.602805 1.38616 0.295221 -0.768679 -0.56743
-1.42479 0.581268 1.31927 -0.371089 0.835877 -0.404478
-1.65591 0.654543 1.58272 -0.583502 0.812106 -0.00298633
-1.64827 0.67311 1.63648 -0.428063 0.82082 -0.378177
-1.64502 0.652773 1.58801 -0.641336 0.702833 0.307755
-1.68026 0.562802 1.36471 0.0125106 0.888632 -0.45845
-1.70839 0.633723 1.58295 -0.987237 0.0586612 0.148063
-1.52917 0.611224 1.35357 -0.218288 0.930351 -0.294613
-1.56016 0.669144 1.56297 -0.225433 0.827973 -0.513459
-1.65915 0.545845 1.35917 -0.368242 -0.744181 0.557308
-1.70316 0.562024 1.38293 -0.0904286 0.915529 -0.391955
-1.6807 0.534575 1.3243 0.217045 0.863316 -0.455606
-1.51381 0.624936 1.38209 -0.10464 0.925998 -0.362737
-1.70636 0.552316 1.35397 -0.00441144 0.940398 -0.340048
-1.61244 0.604963 1.38434 0.295221 -0.768679 -0.56743
-1.55781 0.620287 1.37062 -0.131531 0.954333 -0.26823
-1.61455 0.590804 1.51312 -0.434843 -0.634246 -0.639253
-1.57284 0.564473 1.45566 -0.740929 0.547273 0.389251
-1.54407 0.614788 1.36297 -0.0904903 -0.956262 0.278162
-1.73936 0.557329 1.35391 0.061495 0.93757 -0.342316
-1.71654 0.557307 1.36342 -0.0168719 0.950049 -0.311646
-1.69374 0.649006 1.64903 -0.945752 -0.169833 0.276967
-1.69575 0.57347 1.40327 0.178317 0.88363 -0.432898
-1.71461 0.612324 1.54009 -0.575146 -0.537173 0.61697
-1.67959 0.610328 1.52362 -0.48282 0.870927 -0.0914911
-1.70609 0.580765 1.41459 0.0932649 0.892668 -0.440959
-1.4849 0.629435 1.42896 0.0926672 0.848692 -0.520706
-1.74051 -0.326255 -2.86211 0.0857015 0.979913 -0.180074
-1.5435 -0.0196729 -0.978751 -0.245084 0.916549 -0.316026
-1.69624 0.582027 1.41896 -0.0835658 -0.974819 0.206747
-1.73822 0.541326 1.31738 0.148747 0.897727 -0.414681
-1.68775 0.598296 1.45303 -0.367977 0.91667 -0.155911
-1.70575 0.599253 1.50463 -0.0304723 -0.994144 0.103677
-1.71535 0.539464 1.31427 0.113209 0.894445 -0.43261
-1.7097 0.568596 1.38307 -0.0713307 0.908037 -0.412771
-1.72982 0.563175 1.3853 0.0913051 0.905783 -0.413788
-1.70976 0.617601 1.54289 -0.143859 0.72611 -0.67236
-1.7338 0.584478 1.44677 -0.342091 0.933924 0.103729
-1.70849 0.605451 1.52385 -0.434065 -0.756314 0.489467
-1.71687 0.577918 1.39876 0.0562188 0.893007 -0.446518
-1.72244 0.552267 1.34839 -0.0234722 0.938811 -0.343633
-1.7174 0.605584 1.5277 -0.434065 -0.756314 0.489467
-1.48458 0.620193 1.34806 -0.0202671 0.929157 -0.36913
-1.66288 9.41488e-07 -0.548116 -0.151642 0.919846 -0.361784
-1.63856 0.606257 1.4979 -0.0892374 -0.964322 0.249237
-1.38454 0.0605953 -0.823559 -0.182499 0.938966 -0.29161
-1.11308 0.178785 -0.646421 0.00368945 0.997556 -0.0697726
-1.45448 0.559827 1.27846 -0.274637 0.904253 -0.326958
-1.59227 0.671331 1.60593 -0.721148 0.668931 -0.180213
-1.70567 0.632097 1.58617 -0.987237 0.0586612 0.148063
-1.72867 0.604851 1.50684 -0.341138 -0.915508 0.213238
-1.66253 0.612347 1.52392 -0.439534 0.887825 -0.136296
-1.64309 -0.380156 -2.40064 0.493972 0.868905 0.031562
-1.24384 -0.0100887 -1.83465 -0.948273 -0.249925 -0.195742
-1.54391 0.672037 1.57229 0.150239 0.707983 -0.690064
-1.43305 0.696757 1.57156 -0.265075 -0.617243 -0.740774
-1.54095 0.616255 1.37921 -0.0481576 0.957007 -0.286038
-1.08122 -0.134523 -2.49012 -0.263232 -0.924378 0.276105
-1.53841 0.633822 1.42753 -0.165607 0.936321 -0.309639
-1.56087 0.0551265 -1.43458 -0.841397 -0.319876 0.43558
-1.33195 -0.0112315 -1.16081 -0.281669 0.940568 -0.189719
-1.25556 0.163313 -0.654522 -0.277058 0.949988 -0.144088
-1.71509 0.537573 1.30236 0.111719 0.916958 -0.383024
-1.50205 0.626925 1.38556 0.0285197 0.956892 -0.289042
-1.76013 0.469689 1.15896 -0.328491 0.931982 -0.153308
-1.601 0.647358 1.64044 -0.202692 0.0757964 -0.976305
-1.73045 0.600498 1.50865 -0.341138 -0.915508 0.213238
-1.69245 0.575995 1.45466 -0.0931944 0.962799 -0.253641
-1.68883 0.612596 1.53739 -0.131793 -0.838223 -0.529162
-1.52672 0.683562 1.58878 -0.345054 -0.846981 0.404427
-1.71692 0.513009 1.27639 0.0986535 0.933429 -0.344932
-1.73047 0.548672 1.33425 0.0946057 0.92475 -0.368628
-1.69481 0.597692 1.4917 -0.223166 0.938737 -0.262619
-1.78759 -0.193084 -2.54162 0.497259 0.86478 0.0699219
-1.36705 0.677539 1.51961 -0.32046 -0.0697089 -0.944693
-1.52655 0.643909 1.45016 -0.256838 0.840729 -0.476664
-1.92676 0.526206 1.52238 0.619524 0.433568 -0.654377
-1.96747 0.488929 1.50392 0.445967 0.44031 -0.779257
-1.91802 0.524863 1.53427 -0.672925 -0.598903 0.434152
-2.31813 0.514321 1.22464 0.565869 0.409891 -0.715389
-1.90862 0.527726 1.5685 0.59593 0.411931 -0.689333
-2.44557 0.31394 1.21256 0.131602 0.957042 -0.258365
-2.3007 0.330414 1.16502 0.59436 0.539558 -0.596333
-2.27762 0.333594 1.19618 0.450407 -0.550679 -0.70277
-2.31696 0.362566 1.31624 -0.865191 0.441412 -0.237907
-1.93156 0.524762 1.55242 -0.232428 0.972032 -0.0336386
-4.63174 -1.34357 -0.531793 0.271287 0.902786 0.333738
-2.29028 0.358272 1.24933 -0.942523 0.218661 -0.252662
-2.32008 0.531429 1.23153 0.565869 0.409891 -0.715389
-2.44537 0.309705 1.25677 0.0950621 0.698616 -0.709154
-2.47725 0.359599 1.25282 0.0215376 0.964038 -0.26489
-2.51012 0.332132 1.24337 -0.793217 0.461525 -0.397242
-2.54715 0.297262 1.26965 0.579811 0.557901 -0.593772
-2.47307 0.331568 1.32786 0.244198 0.918046 -0.312346
-2.05717 -0.141709 1.70064 -0.441061 -0.478294 -0.759407
-2.05914 -0.0821302 1.68794 -0.952133 -0.175291 -0.250432
-4.35307 -1.13743 0.199164 0.910399 0.234965 -0.340538
-5.06602 -0.677116 -0.765974 0.613968 0.228199 0.755625
-4.87833 -0.640483 -0.782304 0.559446 0.148151 0.815519
-4.51989 -1.17782 0.0798808 0.910399 0.234965 -0.340538
-4.73972 -1.39336 -0.595693 0.271287 0.902786 0.333738
-4.3827 -1.20768 0.136557 0.910399 0.234965 -0.340538
-2.4603 0.314607 1.24428 0.0756307 0.979044 -0.189086
-2.42207 0.300675 1.22524 -0.893386 -0.43013 -0.129808
-2.57264 0.284296 1.21713 0.636001 0.677819 -0.368868
-2.46345 0.339399 1.27146 0.0509087 -0.252304 -0.966308
-2.51427 0.323431 1.29164 -0.487749 0.574701 -0.657129
-2.4395 0.340913 1.37031 0.720761 0.521332 -0.456856
-2.43314 0.363607 1.39329 -0.792578 0.317114 -0.520824
-2.44734 0.379744 1.41108 0.46944 0.664439 -0.581504
-2.48142 0.327041 1.33514 0.211396 0.964033 -0.161094
-2.38817 0.291756 1.0568 -0.265162 0.91947 -0.290283
-4.62065 -1.42985 -0.575707 0.271287 0.902786 0.333738
-2.69408 0.256718 1.30604 -0.498874 0.814203 -0.296982
-2.35715 0.380931 1.42308 -0.888397 -0.443901 -0.117056
-1.96998 0.559767 1.72862 0.269686 0.182656 -0.945466
-2.39229 0.355811 1.43935 -0.550462 0.285754 -0.784434
-1.9795 0.551283 1.72889 0.269686 0.182656 -0.945466
-2.00746 0.542152 1.71039 0.347486 0.266724 -0.89895
-1.99616 0.524564 1.73349 0.367617 0.303518 -0.879053
-2.00756 0.53323 1.71339 0.536924 0.335857 -0.773895
-2.47902 0.298929 1.18112 -0.770453 0.572766 -0.279895
-3.19402 -0.0249453 1.06504 0.331504 -0.350622 -0.875882
-3.23709 -0.130173 1.07685 0.380422 -0.405931 -0.830963
-2.34068 0.299925 1.12344 0.622188 0.495393 -0.606192
-2.02517 -0.138892 1.68088 0.456011 0.88849 -0.0513725
-2.7123 0.291256 1.40945 -0.485063 0.832661 -0.267188
-2.3095 0.488631 1.20419 0.526027 0.568904 -0.632174
-3.20994 -0.0172726 1.0456 0.331504 -0.350622 -0.875882
-3.45763 -0.227902 0.975356 -0.626938 0.585839 -0.513558
-3.3488 -0.157476 0.948255 0.379484 -0.0799761 -0.921735
-3.5382 0.0147835 1.0077 0.396382 0.89509 0.204195
-3.33784 0.0108886 1.00836 0.26003 -0.495554 -0.82874
-2.05753 -0.151997 1.6933 -0.374574 -0.213121 -0.902371
-2.06081 -0.233402 1.73798 -0.613888 -0.261395 -0.744859
-3.52194 -0.202753 1.08924 0.80705 -0.44987 0.382476
-3.57213 -0.00122768 1.0226 0.396382 0.89509 0.204195
-2.51688 -0.321429 1.80296 -0.161865 0.848941 -0.50309
-2.43526 -0.293554 1.80463 -0.667256 0.153217 -0.728899
-2.26076 -0.256774 1.87593 -0.1641 0.977103 -0.135431
-2.22348 -0.237573 1.88682 -0.234052 0.938068 -0.255436
-2.23747 -0.230867 1.86596 -0.234052 0.938068 -0.255436
-2.30734 -0.266468 1.88255 -0.224639 0.95343 -0.201266
-3.44752 -0.179763 1.06146 -0.245114 -0.301483 -0.921427
-3.48772 -0.0145887 0.996089 -0.132946 -0.34514 -0.929087
-3.46612 -0.188477 1.09416 -0.463745 0.662317 -0.588453
-2.21266 0.355236 1.23241 -0.561322 0.802588 0.201918
-3.27943 -0.103656 1.12368 0.380422 -0.405931 -0.830963
-2.30001 0.364379 1.3122 -0.865191 0.441412 -0.237907
-1.94637 -0.199945 1.73761 -0.277349 0.883008 -0.378649
-2.10449 -0.243247 1.75401 -0.780994 -0.0888777 -0.618182
-4.53908 -0.763957 -0.0097649 0.855232 0.484396 -0.184225
-2.06759 -0.094453 1.6833 0.85058 0.331656 -0.408066
-3.48966 -0.0349599 0.986355 -0.132946 -0.34514 -0.929088
-3.51431 0.00861626 0.984955 0.396382 0.89509 0.204195
-3.61831 0.160021 1.04692 0.696812 0.446614 -0.561238
-2.55752 -0.341892 1.81864 0.213162 -0.0698941 -0.974514
-2.2719 -0.251213 1.88336 -0.287735 0.925657 -0.245697
-3.63261 0.0432494 0.926181 0.573628 0.274516 -0.771746
-2.4288 -0.288055 1.90828 -0.277899 0.935283 0.219131
-2.52053 -0.307203 1.84755 -0.690224 0.698757 0.187961
-3.55838 -0.199561 1.07656 0.851091 -0.338091 0.40167
-2.52821 -0.335254 1.86394 -0.193492 0.609232 -0.769023
-2.36883 -0.266912 1.88698 -0.230645 0.924529 -0.303398
-3.28003 -0.58353 1.58028 -0.520347 0.748144 -0.411726
-2.87216 -0.424969 1.77762 -0.325286 0.945469 -0.0166801
-2.54734 0.387557 1.7132 -0.0354589 -0.99211 -0.120249
-1.9578 0.502066 1.50873 0.492261 0.188279 -0.849841
-2.06276 3.01645e-05 1.63624 -0.181582 -0.100064 -0.978271
-2.4694 -0.285144 1.84081 -0.0724754 0.979016 -0.190457
-5.24574 -0.416563 0.12073 0.553975 0.830077 -0.0639147
-3.0206 -0.487436 1.64885 -0.013483 0.997092 -0.0749996
-2.27538 0.482492 1.07774 -0.972142 0.132696 -0.193215
-2.25745 0.539249 1.10846 -0.976697 -0.062919 -0.205195
-2.24685 0.39735 1.31287 -0.547811 0.835267 -0.0472413
-1.99722 -0.200407 1.74139 0.00425607 0.988058 -0.154021
-2.73308 0.248017 1.34853 -0.485063 0.832661 -0.267188
-3.71362 0.304114 1.10829 -0.185134 0.974609 -0.125951
-1.95841 -0.223672 1.69606 -0.672288 0.661254 -0.332824
-2.38665 0.425896 1.64821 0.0446836 0.982213 -0.182375
-2.73697 -0.397305 1.74414 0.0428192 0.8689 -0.493131
-2.46552 -0.292804 1.88396 -0.280338 0.941813 0.18547
-2.31094 -0.228967 1.95697 -0.244123 0.873544 -0.421099
-2.25029 -0.230279 1.93077 -0.325764 0.903994 -0.276898
-2.37643 -0.242273 1.97373 -0.10971 0.984826 -0.134466
-2.65932 -0.352831 1.86801 -0.150716 0.969718 -0.192179
-2.38998 0.430257 1.678 0.257522 -0.963282 -0.0759609
-2.3349 -0.272043 1.92917 -0.0709264 0.972864 -0.220241
-3.49628 -0.602895 1.52453 -0.267749 0.781482 -0.563557
-2.67253 0.354152 1.6166 -0.59812 0.7137 -0.364533
-2.57686 -0.310005 1.91108 -0.195004 0.942675 -0.270809
-2.42343 -0.234457 1.97162 -0.50006 0.819373 -0.2803
-2.52571 -0.332406 1.83639 0.220474 0.0247864 -0.975078
-2.63416 -0.329158 1.91449 -0.114911 0.979521 -0.165328
-2.5774 -0.300209 1.93399 -0.223725 0.962616 -0.1527
-2.464 -0.293602 1.88779 -0.378234 0.803335 0.45999
-3.67216 -0.173261 1.34036 0.814049 -0.0636983 0.577293
-2.94658 -0.463897 1.81312 -0.356932 0.930767 -0.0791961
-3.55394 -0.581298 1.5505 -0.521549 0.468394 -0.713158
-2.64629 -0.320801 1.93431 -0.173121 0.976662 -0.127125
-3.06363 -0.508858 1.6457 -0.013483 0.997092 -0.0749996
-2.71026 -0.347882 1.91854 -0.213461 0.960739 -0.17724
-3.62673 -0.661629 1.59005 -0.120066 0.931061 0.344542
-2.53545 -0.297874 1.99013 -0.311435 0.948581 -0.0565882
-3.56466 -0.669781 1.60088 -0.43284 0.872382 0.227155
-3.27261 -0.527678 1.72577 0.35515 0.747977 -0.560713
-2.5174 -0.292403 2.00691 -0.391023 0.918311 0.0616944
-2.47136 -0.284197 2.02393 -0.433488 0.900235 -0.040806
-2.43666 -0.25169 2.0359 -0.571448 0.807683 -0.145239
-2.86336 -0.423955 1.78094 -0.325286 0.945469 -0.0166801
-3.72278 0.25429 1.11503 -0.185134 0.974609 -0.125951
-3.3318 -0.576154 1.61749 -0.0705963 0.992948 -0.0952392
-3.76238 0.320806 1.09561 0.185134 -0.974609 0.125951
-3.29093 -0.52485 1.66649 0.21354 0.939291 -0.268578
-2.28856 0.63447 1.0351 -0.938897 -0.317095 -0.133878
-1.92677 0.520202 1.53615 -0.944616 0.00915698 0.32805
-1.91097 0.527121 1.56868 0.59593 0.411931 -0.689333
-4.68126 -0.659755 -1.00607 0.461655 0.0591356 0.885086
-4.8545 -0.581411 -0.700006 0.559446 0.148151 0.815519
-4.9843 -0.406594 0.163944 0.603298 0.796702 -0.036032
-2.18931 0.388304 1.05551 -0.90474 0.281374 0.319803
-2.27232 0.606553 1.03618 -0.907268 -0.414286 -0.0723312
-2.26389 0.297454 1.01774 0.51624 0.510736 -0.687492
-2.27525 0.490864 1.05778 -0.998591 -0.0358024 -0.0391648
-2.20937 0.327079 1.04129 -0.931614 -0.0997778 -0.349485
-4.57857 -0.909979 -0.903635 0.658109 0.131486 0.741353
-4.377 -1.40119 -0.633869 0.460239 0.740956 0.489045
-2.02694 -0.00518009 1.63985 0.430794 0.227162 -0.873392
-1.96679 -0.211709 1.72325 -0.484499 0.724516 -0.490242
-2.09655 -0.0153152 1.65116 -0.205626 -0.53139 -0.821792
-1.90822 -0.160126 1.82071 0.278497 0.810054 -0.515995
-1.95254 -0.146543 1.81727 -0.000132343 0.909969 -0.414676
-1.9507 -0.179416 1.87973 -0.402585 0.800705 -0.443618
-1.98502 -0.197386 1.86467 -0.227194 0.97332 -0.0321185
-2.35204 0.416899 1.52071 -0.881487 -0.354861 0.311537
-2.00727 -0.194136 1.90068 -0.251766 0.876038 -0.411305
-3.53449 -0.637431 1.54843 -0.143602 -0.47484 -0.868278
-2.91962 -0.439111 1.84329 -0.356932 0.930767 -0.079197
-2.14612 -0.161665 2.12753 -0.16718 0.931872 -0.321972
-2.23102 -0.205099 2.10071 -0.145762 0.974178 -0.172427
-3.31578 -0.50591 1.78787 -0.494338 0.465926 -0.733854
-3.2679 -0.522628 1.70169 0.985803 -0.158449 -0.055546
-2.30106 -0.176556 2.1598 -0.167748 0.978434 -0.120533
-2.48181 -0.287046 2.02415 -0.433488 0.900235 -0.040806
-3.67913 0.213424 1.36776 0.455301 0.886332 0.0843577
-2.48377 -0.264712 1.84781 -0.0838745 0.989217 -0.120062
-2.35724 -0.19654 2.15031 -0.198216 0.948693 -0.246358
-2.25577 -0.166838 2.18962 -0.160649 0.922694 -0.350467
-3.25112 -0.520991 1.89267 -0.404985 0.903805 0.138284
-2.73518 0.333899 1.6768 -0.439999 0.497619 -0.747513
-2.79433 -0.337582 2.03142 -0.363566 0.903761 -0.225913
-4.07288 -0.846804 1.66846 -0.361085 0.905287 -0.223769
-2.58716 -0.296795 2.10334 -0.268499 0.927869 -0.258781
-3.80891 0.369891 1.29932 0.749359 0.655581 0.0931376
-3.41294 0.121917 1.57554 0.513962 0.0529663 -0.856176
-2.27844 -0.183703 2.19692 -0.113857 0.946175 -0.302969
-2.47125 -0.234736 2.14545 -0.369885 0.89271 -0.2574
-2.40758 -0.213124 2.15951 -0.230903 0.909141 -0.346623
-4.45574 -0.850656 1.55213 -0.261845 0.963847 0.0493604
-3.20198 -0.440997 1.93852 -0.430763 0.901151 0.0486948
-2.62581 -0.286853 2.11404 -0.230493 0.946795 -0.224616
-3.66669 0.208874 1.35377 0.455301 0.886332 0.0843577
-2.76538 -0.328783 2.08993 -0.224057 0.974525 0.0099713
-3.0737 -0.49687 1.65221 -0.013483 0.997092 -0.0749996
-1.95907 -0.212215 1.67428 -0.936455 0.269513 -0.224534
-4.43155 -1.42006 -0.671325 0.460239 0.740956 0.489045
-2.02649 0.0320033 1.63867 0.757061 0.197073 -0.622914
-2.36491 0.412825 1.54486 -0.881487 -0.354861 0.311537
-2.98067 -0.46767 1.67138 -0.145265 0.949668 -0.27754
-2.42212 -0.256016 1.95348 -0.225413 0.816026 -0.532251
-2.51693 -0.298336 1.82694 -0.495938 0.813086 -0.304854
-3.59219 -0.657458 1.57553 -0.43284 0.872382 0.227155
-3.74358 0.315323 1.18667 0.806725 0.495483 0.322011
-2.68635 0.353057 1.67143 -0.58571 0.621734 -0.519991
-2.71496 0.37342 1.67384 -0.439999 0.497619 -0.747513
-3.74796 0.271646 1.21713 0.79115 0.608059 0.0659275
-3.54467 -0.6273 1.66164 -0.703348 0.710837 -0.00346425
-3.29123 -0.568428 1.73892 -0.768875 0.109287 -0.62999
-2.73519 0.357362 1.68413 -0.439999 0.497619 -0.747513
-3.75692 -0.657256 1.57349 -0.22262 0.974592 0.0247261
-2.68113 -0.325917 1.97652 -0.187728 0.975719 -0.112831
-3.74196 0.238514 1.26541 0.787057 0.61626 -0.0276584
-2.46842 -0.255129 1.98016 -0.546481 0.808241 -0.219327
-2.44986 -0.258553 2.06996 -0.54838 0.78938 -0.275969
-3.76845 -0.658576 1.61862 -0.22262 0.974592 0.0247261
-2.43521 -0.257945 2.0029 -0.407514 0.912973 0.0203061
-3.88585 -0.714636 1.60199 -0.518324 0.846797 -0.119478
-3.38267 -0.499036 1.7456 -0.170199 0.945676 -0.277
-3.15703 -0.466302 1.84049 0.144877 0.977588 -0.152751
-3.29695 -0.454459 1.77731 -0.494338 0.465926 -0.733854
-2.88765 -0.395522 1.95059 -0.477216 0.872264 -0.106868
-2.43761 -0.232091 2.09094 -0.309165 0.899667 -0.308248
-3.35288 -0.562162 1.80926 0.061449 0.998107 -0.00258761
-3.65872 0.181042 1.37522 0.455301 0.886332 0.0843577
-3.34897 -0.0282288 1.56188 0.514335 0.127078 -0.848122
-3.18898 -0.495227 1.87352 -0.411772 0.898487 -0.152202
-3.63602 -0.663107 1.64226 -0.0705575 0.985977 0.151228
-2.07381 -0.186535 1.73467 -0.780632 -0.101697 -0.616661
-2.2464 0.404101 0.993051 -0.788108 0.0864855 -0.609431
-2.26907 0.424743 0.981023 -0.879257 0.0194956 -0.475949
-2.27114 0.45044 1.01615 -0.990577 -0.136873 -0.00469576
-6.03133 -2.27738 -2.97909 0.232363 0.946675 -0.223192
-4.51539 -1.23288 -0.852496 0.911097 -0.0359192 -0.410623
-2.42732 0.311669 1.22816 -0.474941 -0.878204 -0.0564721
-1.96477 -0.180041 1.66955 -0.502604 -0.2366 -0.83151
-2.48074 0.334247 1.29063 -0.229057 0.971835 0.0554102
-1.89509 -0.154677 1.83024 0.0228309 0.969919 -0.242356
-2.06867 -0.117001 1.70737 -0.449436 -0.242362 -0.859807
-2.09365 -0.063844 1.68444 -0.918709 -0.360842 -0.160519
-1.90541 -0.177957 1.84314 -0.603963 0.797006 0.00308794
-2.07579 -0.239094 1.75067 -0.2097 -0.639064 -0.740016
-1.93073 -0.178127 1.79376 -0.0087391 0.9249 -0.380111
-4.59776 -1.52563 -0.772306 0.135853 0.975369 -0.17378
-1.96897 -0.176354 1.7841 -0.154895 0.906645 -0.392432
-1.959 -0.161255 1.90731 -0.317956 0.799364 -0.509825
-4.52098 -0.795592 -0.0204259 0.855232 0.484396 -0.184225
-1.99933 -0.180602 1.81279 -0.615486 0.760346 -0.207487
-2.00719 -0.179593 1.92419 -0.431678 0.84521 -0.315078
-2.06177 -0.169707 2.00453 -0.394867 0.878654 -0.268417
-3.00203 -0.491103 1.61585 0.23273 0.924669 -0.30137
-3.64039 0.301811 1.0837 0.762103 0.64567 0.0480663
-2.43613 -0.293378 1.92501 0.708399 0.457599 -0.537377
-2.43175 -0.250644 2.00909 -0.407514 0.912973 0.0203061
-3.44945 -0.590537 1.59389 -0.166068 0.964793 -0.203951
-2.75156 0.358535 1.69288 -0.439999 0.497619 -0.747513
-3.72748 -0.643767 1.61557 -0.136408 0.989457 0.0486565
-2.47805 -0.25226 2.06149 -0.443435 0.855229 -0.268234
-3.82019 -0.243712 1.57324 0.820712 0.141616 0.553513
-3.51582 -0.588734 1.7247 -0.585405 0.80973 -0.0404745
-4.47979 -0.892109 1.5713 -0.261845 0.963847 0.0493604
-4.4213 -0.934478 1.62024 -0.261845 0.963847 0.0493604
-3.75551 0.234402 1.44906 -0.332934 -0.671102 -0.662403
-2.48495 -0.288013 1.91476 0.7321 0.671927 -0.111996
-3.37407 -0.532365 1.94466 -0.444652 0.890593 0.0955441
-4.59478 -0.928216 1.62057 -0.261845 0.963847 0.0493604
-3.15188 -0.45976 1.89108 -0.298234 0.947939 -0.111658
-2.82264 -0.357406 2.11872 -0.457892 0.850618 -0.258427
-3.24437 -0.503064 1.89543 -0.404985 0.903805 0.138284
-3.26291 -0.550053 1.70604 0.335612 0.810118 -0.4807
-1.96752 -0.162673 1.67628 -0.337278 -0.415749 -0.844628
-2.2633 0.609744 1.07546 -0.943503 -0.145482 -0.297719
-1.94389 -0.187808 1.77627 -0.00173931 0.890424 -0.455128
-3.47544 -0.14061 1.0811 -0.468925 -0.249785 -0.847181
-2.19302 0.370467 1.05913 -0.507498 0.555814 -0.658419
-2.29575 0.456043 0.965842 -0.948627 -0.14196 -0.282763
-2.45094 0.195293 0.803841 -0.227761 0.967281 -0.111768
-2.21361 0.388981 1.18533 -0.827075 0.52459 0.201872
-1.95933 0.500244 1.49211 0.401746 0.38428 -0.831221
-1.90693 0.534161 1.56092 0.20722 -0.535423 -0.818769
-5.05319 -1.77968 -1.89242 0.936193 0.102401 -0.33624
-2.30023 0.485828 1.22107 0.526027 0.568904 -0.632174
-4.81739 -1.58667 -1.47764 0.900388 0.0778486 -0.428067
-5.81706 -1.65321 -2.42027 -0.575001 0.0659631 0.815489
-6.46685 -2.37745 -3.13568 0.228807 0.795939 -0.560471
-5.77483 -2.11094 -2.44804 -0.572901 0.698464 0.428873
-2.31525 0.542241 1.22667 0.565869 0.409891 -0.715389
-6.88886 -2.32649 -3.49391 -0.518465 0.740224 0.428091
-3.25291 -0.430268 0.206632 -0.10046 -0.105173 0.989367
-6.03409 -2.30945 -2.61324 0.262031 0.950282 -0.168237
-2.37239 0.296472 1.06119 0.331049 0.732862 -0.594407
-6.66606 -2.31762 -3.16577 -0.394109 -0.181446 0.900975
-2.52055 0.274238 1.02586 0.0804467 0.976981 -0.197579
-2.2679 0.333342 1.208 -0.398444 0.746095 -0.533465
-4.66607 -1.09663 -1.01241 0.952127 0.197608 0.233248
-3.26154 -0.428046 0.17213 -0.10046 -0.105173 0.989367
-2.40931 0.263431 1.08623 -0.418139 0.821435 -0.387821
-1.94394 -0.174277 1.60055 -0.987568 -0.1051 -0.116887
-1.96953 -0.185519 1.61963 -0.965604 0.028938 -0.2584
-1.94664 -0.150339 1.64974 -0.977742 7.07544e-05 -0.20981
-4.47854 -1.24492 -0.857662 0.81613 -0.0430038 -0.576266
-1.94448 -0.157446 1.66448 -0.687169 -0.23161 -0.68859
-4.52799 -1.38998 -0.527484 0.115909 0.953592 -0.277898
-2.44294 0.343316 1.28355 -0.270069 -0.952373 -0.141594
-1.95592 -0.163316 1.65095 -0.95217 -0.237596 -0.192149
-1.99035 -0.207137 1.73915 -0.308205 0.8984 -0.312868
-2.11953 0.0514929 1.67582 -0.14366 0.0508023 -0.988322
-1.91139 -0.156455 1.86499 -0.516448 0.856081 0.0201607
-4.34799 -1.04877 0.132366 0.910399 0.234965 -0.340538
-1.92409 -0.181869 1.88048 -0.599809 0.520449 -0.607752
-1.99788 -0.240126 1.77414 -0.298306 0.545577 -0.783172
-2.01749 -0.197856 1.88096 -0.17781 0.981503 -0.0709598
-1.95748 -0.154182 1.92963 -0.209491 0.946939 -0.243763
-6.64518 -1.25868 -1.07767 0.212178 -0.835417 0.50701
-3.25043 -0.113507 1.0959 0.380422 -0.405931 -0.830963
-3.4263 -0.0837146 1.00381 -0.278286 -0.321344 -0.905149
-3.08361 -0.46185 1.55511 -0.0814327 0.984826 0.153254
-2.96962 -0.491122 1.61741 -0.139993 0.830536 -0.539085
-2.08501 -0.186707 1.96764 -0.31919 0.938309 -0.133019
-3.21034 -0.555977 1.54121 0.279019 -0.738424 -0.613904
-2.66247 0.380916 1.62967 -0.568199 0.693968 -0.442221
-2.44345 -0.30403 1.8083 0.0823262 0.850074 -0.520189
-2.18129 -0.19625 2.04652 -0.0743794 0.979185 -0.188849
-3.29671 -0.557604 1.56453 0.105356 0.973383 -0.203532
-3.44803 -0.59489 1.53601 -0.303671 0.790399 -0.532027
-2.97491 -0.463204 1.81477 -0.367408 0.930047 0.00483237
-3.79046 -0.237036 1.38165 -0.589963 0.573628 -0.568238
-2.74428 0.354119 1.69565 -0.439999 0.497619 -0.747513
-3.17489 -0.534493 1.77798 -0.115875 0.934269 -0.337215
-2.14485 -0.155625 2.15684 -0.667649 0.43895 -0.601305
-3.63098 -0.131823 1.32186 -0.764502 0.190194 -0.615924
-4.05961 -0.460713 1.27543 0.813846 -0.0512969 -0.578812
-3.53031 -0.578965 1.5432 -0.267749 0.781482 -0.563557
-3.65061 0.20603 1.4043 0.455301 0.886332 0.0843577
-3.67094 0.211964 1.41322 0.455301 0.886332 0.0843577
-3.43185 0.143141 1.57735 0.513962 0.0529663 -0.856176
-2.43528 -0.330356 1.95055 0.636684 0.666005 -0.388679
-3.30387 -0.532877 1.93981 -0.386143 0.920965 -0.0521163
-3.22094 -0.483696 2.04717 -0.397844 0.908257 -0.129576
-3.39903 0.110264 1.5696 0.513962 0.0529663 -0.856176
-2.43835 -0.233807 2.08621 -0.309165 0.899667 -0.308248
-2.35029 0.417767 1.56344 -0.881487 -0.354861 0.311537
-5.6425 -2.12468 -2.41211 -0.445769 0.602495 0.662034
-2.37038 0.391066 1.44071 -0.84673 -0.528868 -0.0578494
-3.28221 -0.514929 1.763 -0.813209 0.402321 -0.420511
-6.05114 -2.32208 -3.10471 -0.185375 0.973537 0.133651
-6.25059 -1.77153 -3.16428 -0.280869 0.29119 0.914506
-7.14747 -2.99524 -4.29319 0.746262 -0.657245 -0.105465
-5.91653 -2.33898 -2.83204 0.232363 0.946675 -0.223192
-5.77735 -2.15491 -2.69395 0.628724 -0.723938 0.283936
-6.63712 -2.57497 -3.5257 -0.268638 0.881471 0.388384
-5.6057 -2.21234 -2.30534 -0.445769 0.602495 0.662034
-5.76365 -2.34974 -2.34173 -0.360056 0.869127 0.339083
-2.51071 0.28788 1.09241 -0.225272 0.969149 -0.10001
-1.956 -0.100356 1.66025 -0.559219 -0.375248 -0.739232
-2.06324 0.0288651 1.6111 0.0666342 0.103519 -0.992393
-1.97756 -0.2382 1.70211 -0.894075 -0.109246 -0.43439
-2.49761 0.332014 1.28114 -0.324388 0.936056 0.13628
-2.35995 0.392737 1.42533 -0.778945 -0.615855 -0.118185
-4.42928 -1.36681 -0.20118 0.159671 0.936495 -0.312221
-2.12646 0.085332 1.65212 -0.177232 0.262335 -0.948562
-2.04743 -0.147792 1.64609 -0.469463 -0.806869 -0.358563
-2.01889 -0.138502 1.68277 0.45601 0.88849 -0.0513728
-2.55855 0.315436 1.23742 -0.746827 0.628953 0.216025
-2.47764 0.325346 1.32747 0.316433 0.824819 -0.468555
-4.43399 -1.36386 -0.187676 0.159671 0.936495 -0.312221
-1.95073 -0.168462 1.81709 -0.000132343 0.909969 -0.414676
-2.37776 0.348542 1.27697 0.23004 0.135823 -0.963657
-3.24958 -0.00871005 1.02183 0.392631 -0.348723 -0.851019
-2.00781 -0.157849 1.97044 -0.571884 0.760418 -0.307755
-2.17398 -0.253154 1.87688 -0.266037 0.961325 -0.0712606
-2.34652 0.362564 1.42513 0.565155 0.492059 -0.662176
-2.01052 -0.177722 1.92117 -0.431678 0.84521 -0.315078
-2.00045 -0.124474 2.00884 -0.275837 0.832935 -0.479722
-2.01109 -0.142524 2.02295 -0.303245 0.818937 -0.487222
-2.41962 0.091789 1.73687 0.676137 -0.0412449 -0.735621
-2.31325 -0.23099 1.94052 -0.143646 0.960622 -0.237848
-2.06459 -0.147412 2.08746 -0.337943 0.940206 -0.0425168
-3.16435 -0.509945 1.50891 -0.461535 0.804352 0.37417
-3.61806 0.0130927 0.978004 0.50615 0.504611 -0.699414
-3.301 -0.630214 1.50377 -0.712095 0.47875 -0.513536
-3.12356 -0.518273 1.67972 -0.253421 0.964512 -0.0741305
-3.30523 -0.593436 1.51563 0.449393 0.863016 0.230757
-3.73122 0.268737 1.18518 0.766841 -0.637252 0.0765833
-3.80245 -0.717821 1.50432 -0.328328 0.893264 -0.307051
-3.73112 0.256929 1.2373 0.777752 0.626763 0.0476541
-3.46075 -0.597265 1.5197 -0.303671 0.790399 -0.532027
-3.87023 -0.722916 1.52165 -0.328328 0.893264 -0.307051
-2.17989 -0.146092 2.23667 -0.249296 0.918223 -0.307764
-2.17521 -0.141323 2.24919 -0.291904 0.944212 -0.152499
-4.2322 -0.81954 1.59508 -0.261845 0.963847 0.0493604
-2.37053 -0.185238 2.15814 -0.198216 0.948693 -0.246358
-3.72399 0.231981 1.47722 0.847196 -0.530736 0.0240411
-3.99721 -0.753486 1.77345 -0.382107 0.918612 -0.100729
-4.06947 0.186226 1.33309 0.461577 -0.783915 -0.415239
-2.40621 -0.22981 1.7884 0.790469 -0.26527 -0.552078
-1.89494 -0.137509 1.86106 -0.292145 0.925319 0.241736
-2.12275 -0.164687 1.81956 -0.412669 0.876474 -0.247985
-2.96491 0.0755341 1.67292 0.258157 -0.172786 -0.950526
-2.26676 0.287702 0.973494 -0.922935 0.045856 0.382216
-2.26549 0.470172 1.06533 -0.990652 0.0958852 -0.0970309
-1.96887 0.497135 1.49288 0.141432 0.470269 -0.871117
-2.3144 0.328041 1.17804 0.59436 0.539558 -0.596333
-1.93024 -0.224846 1.58154 -0.824291 -0.562128 -0.0674998
-5.10212 -1.05955 -1.84502 0.539125 -0.787274 0.299238
-2.44422 0.316806 1.14168 0.202476 0.862132 -0.46447
-3.14576 -0.144304 0.168881 0.0590977 0.506028 0.86049
-1.84636 0.391852 1.721 -0.518042 -0.766048 -0.380529
-2.46515 0.303912 1.16234 0.776809 0.0484859 -0.627866
-2.02084 0.0563435 1.62323 -0.860131 -0.443282 0.252341
-1.93503 -0.18819 1.69444 -0.980283 0.0416101 0.193169
-2.05165 0.0424059 1.63141 0.423963 0.630664 -0.650014
-6.80127 -2.31374 -3.3112 -0.394108 -0.181446 0.900975
-1.96326 -0.216038 1.67643 -0.936455 0.269513 -0.224534
-2.51797 0.315725 1.30158 -0.67527 0.689962 0.260697
-2.44784 0.366934 1.40499 -0.792578 0.317114 -0.520824
-1.91208 -0.146482 1.85795 -0.292145 0.925319 0.241735
-1.92144 -0.148402 1.97441 0.120015 0.99241 -0.0268171
-2.07962 -0.196821 1.88096 0.023088 0.998927 0.0401475
-1.97902 -0.170322 1.89309 -0.356967 0.838821 -0.411039
-1.99456 -0.149817 1.98647 -0.420682 0.839381 -0.344188
-1.95989 -0.136008 2.0107 0.244527 0.916935 -0.315336
-1.97783 -0.156567 1.93915 -0.442167 0.838073 -0.319566
-2.03534 -0.176334 1.98768 -0.394867 0.878654 -0.268417
-3.50725 -0.274518 0.953351 -0.626938 0.58584 -0.513557
-2.01333 -0.168205 1.96784 -0.43217 0.845036 -0.314869
-2.51118 0.332815 1.36258 0.0361525 0.973051 -0.22774
-2.80943 -0.485293 1.61968 -0.168345 0.895162 -0.41273
-3.30816 -0.160358 1.02991 0.413677 -0.59506 -0.689039
-2.06496 -0.182412 1.99544 -0.394867 0.878654 -0.268417
-2.08773 -0.195559 1.99699 -0.4348 0.898524 -0.0600258
-3.05825 -0.501094 1.47789 0.201112 -0.717263 -0.667149
-3.02289 -0.545542 1.51158 0.798379 0.41683 -0.434561
-3.10317 -0.478349 1.46228 0.258169 -0.554938 -0.790817
-3.63169 0.182945 0.98461 0.696812 0.446614 -0.561238
-2.32658 -0.263644 1.96853 -0.109375 0.953212 -0.281823
-2.47794 -0.280409 1.89067 -0.280338 0.941813 0.18547
-3.66552 0.253264 0.979425 0.165276 0.71724 -0.676942
-3.27983 -0.491202 1.42 -0.0620364 -0.558643 -0.827085
-3.12472 -0.571268 1.54435 -0.304392 0.93417 0.186205
-2.89836 -0.453531 1.7114 -0.170706 0.950304 -0.260348
-3.23382 -0.650997 1.53687 0.0049472 0.381225 -0.924469
-3.7304 0.235054 1.02423 0.165275 0.71724 -0.676943
-3.36268 -0.465352 1.44319 -0.312307 -0.605158 -0.732289
-2.97069 -0.530424 1.61005 -0.168678 0.853392 -0.493223
-2.71263 -0.313735 1.87532 -0.21174 0.960892 -0.178471
-2.88795 -0.413107 1.79555 -0.387922 0.915101 -0.110034
-2.18791 -0.203677 1.89793 -0.29902 0.923886 0.23879
-2.75039 -0.378057 1.77665 -0.019061 0.800217 -0.599407
-3.37215 -0.440984 1.44888 -0.312307 -0.605158 -0.732289
-3.65891 -0.13241 1.36372 0.82962 -0.0985406 0.549564
-3.89329 -0.756513 1.44937 -0.558084 0.803457 -0.207364
-2.25635 -0.258599 1.95087 -0.284131 0.927543 -0.242763
-3.25942 -0.458106 1.78923 0.195554 0.935797 -0.29333
-3.33743 -0.0111077 1.59936 0.216396 -0.0288649 -0.975879
-3.34206 -0.0349849 1.61784 0.216396 -0.0288649 -0.975879
-3.49991 -0.555013 1.72461 -0.596829 0.776863 0.200695
-3.34254 0.130685 1.5858 0.513962 0.0529663 -0.856176
-2.24324 -0.171938 2.20814 -0.188549 0.940286 -0.283394
-2.18244 -0.13601 2.23235 -0.249296 0.918223 -0.307764
-2.28881 -0.184996 2.04135 -0.085097 0.95157 -0.29542
-2.53504 -0.243453 2.22439 -0.317424 0.924777 -0.209833
-2.33014 -0.161279 2.29457 -0.323334 0.837414 -0.440674
-2.4725 -0.210068 2.15961 -0.362063 0.891756 -0.271444
-3.78421 0.0282207 1.48872 -0.70363 0.0403047 -0.709423
-2.39751 -0.184086 2.29277 -0.23386 0.96166 -0.143246
-3.81197 0.0578348 1.51179 -0.70363 0.0403047 -0.709423
-2.51194 -0.208473 2.2629 -0.280289 0.94443 -0.171725
-2.94078 -0.357819 2.12788 -0.38398 0.881326 -0.275361
-3.57579 -0.605667 1.53846 -0.6066 0.525736 -0.596354
-3.1787 -0.465944 1.96438 -0.430763 0.901151 0.0486948
-3.22867 -0.370819 0.164696 -0.10046 -0.105173 0.989367
-2.07078 -0.199822 1.88861 0.023088 0.998927 0.0401475
-3.05872 -0.434629 1.53199 0.0943596 0.995527 -0.00480648
-3.32916 0.0662808 1.56132 0.216396 -0.0288649 -0.975879
-2.73527 -0.174828 1.99076 -0.11086 0.976201 -0.18639
-2.42913 -0.192807 1.79317 0.817911 -0.249854 -0.518261
-2.46429 0.177843 1.7276 -0.0605939 0.0518427 -0.996815
-1.91863 -0.160429 1.88617 -0.713275 0.449482 -0.537777
-2.96968 -0.539861 1.53689 0.0816607 0.996324 -0.0258958
-3.14598 -0.472107 1.43197 0.513395 -0.58994 -0.623214
-2.43245 0.326536 1.26532 0.224064 0.669065 -0.708624
-5.01969 -1.35076 -1.82417 0.894298 0.218342 -0.390587
-5.28164 -1.5458 -2.18234 0.942859 -0.210197 -0.258524
-4.71432 -1.51992 -1.41811 0.9091 -0.0302749 -0.415475
-2.42269 0.315568 1.26793 0.523606 0.826078 -0.208402
-2.04653 0.00834075 1.62033 0.158625 0.0712124 -0.984767
-2.07107 -0.211988 1.73494 -0.661947 -0.188662 -0.725419
-3.30169 -0.405439 1.37337 -0.0287847 0.920716 -0.38917
-3.33143 -0.580744 1.29817 0.963565 0.222852 -0.14792
-3.3846 -0.113258 1.01896 -0.306091 -0.367344 -0.878275
-3.38511 -0.522737 1.5246 0.166894 -0.698491 -0.695886
-3.21054 -0.527729 1.41035 0.21508 -0.651879 -0.727182
-3.66444 0.191035 0.960659 0.330344 0.60866 -0.721392
-5.33481 -0.719191 -0.476777 0.915807 0.23609 0.3249
-2.98675 -0.583797 1.51762 0.0369404 0.501922 -0.864124
-2.92864 -0.512067 1.51068 -0.043019 -0.202278 -0.978383
-2.86593 -0.439878 1.9113 -0.382042 0.910598 -0.157656
-3.00629 -0.461266 1.5084 -0.361588 -0.419057 -0.832853
-1.99613 -0.140827 2.02245 -0.275837 0.832935 -0.479722
-3.00499 -0.483858 1.49259 -0.361588 -0.419057 -0.832853
-3.27087 -0.554911 1.46249 -0.448905 0.843926 0.293723
-3.31926 0.0766748 1.582 0.216396 -0.0288649 -0.975879
-3.76516 -0.642742 1.45049 -0.355744 0.930715 -0.0849432
-2.57186 0.341702 1.39529 0.100036 0.980465 -0.169358
-5.48693 -2.16048 -2.33761 -0.568204 0.476378 0.670976
-2.59119 -0.330397 1.81311 -0.254541 0.801553 -0.541037
-3.87365 -0.825061 1.347 -0.558084 0.803457 -0.207364
-3.44271 -0.0504376 0.990249 -0.0378392 -0.388603 -0.920628
-3.32925 -0.646888 1.21404 0.991652 -0.0850157 -0.0969483
-3.11563 -0.100194 1.11548 0.331504 -0.350622 -0.875882
-3.29546 -0.555416 1.27243 0.752927 0.525655 -0.395964
-3.22536 -0.581079 1.4846 -0.607003 0.790904 0.0775761
-2.44595 -0.307554 1.77857 0.0235394 0.577532 -0.816029
-3.72746 0.125341 0.936899 -0.0863614 0.350881 -0.932429
-3.50907 -0.545373 1.61636 -0.319035 0.939069 -0.127931
-3.57058 -0.0125826 0.997729 0.396382 0.89509 0.204195
-3.32458 -0.736921 1.47025 -0.0718092 0.362457 -0.92923
-2.27269 0.352189 1.67722 -0.607396 -0.781563 0.142229
-4.83921 -0.592429 -0.623318 0.355327 0.927466 -0.116401
-3.86631 0.164563 1.09025 0.612456 -0.713792 0.339703
-5.95991 -2.23608 -2.54462 -0.284262 0.945895 -0.156455
-3.80753 0.153701 0.908244 -0.101688 0.742176 -0.662446
-7.76805 -3.11148 -5.54845 -0.709484 0.52177 0.473696
-6.85042 -2.70025 -4.49482 0.712006 -0.702074 -0.0118522
-8.84953 -2.86001 -6.86185 -0.720467 0.482307 0.498304
-8.26063 -1.71367 -6.61072 -0.720467 0.482307 0.498304
-3.87867 -1.05224 -4.21612 -0.224728 0.958173 0.177205
-1.95299 -0.375916 -2.63066 -0.970233 0.202917 0.132185
-1.59298 0.617095 1.52445 -0.527782 0.681508 -0.506946
-1.66901 0.66106 1.66662 -0.734176 -0.268727 0.623515
-1.67079 0.639694 1.68139 0.394867 -0.105504 -0.912661
-1.5884 0.659235 1.65243 -0.499849 0.336892 -0.797906
-1.63901 0.676936 1.643 -0.301229 0.921795 -0.244038
-1.63383 0.681549 1.64932 -0.301229 0.921795 -0.244038
-1.60576 0.586776 1.43263 -0.957913 0.144329 0.248138
-1.61935 0.59534 1.4253 -0.731792 0.137913 0.667429
-1.68732 0.660345 1.61502 -0.82036 -0.473051 0.321299
-1.6413 0.662884 1.59417 0.135914 0.82946 -0.541778
-1.6418 0.656758 1.59485 0.135914 0.82946 -0.541778
-1.63453 0.676606 1.61169 0.358501 0.724491 -0.588719
-1.62698 0.633259 1.52593 -0.182762 0.872845 -0.452481
-1.58758 0.690017 1.62303 -0.300852 0.786143 -0.539877
-1.62933 0.683924 1.63792 -0.301229 0.921795 -0.244038
-1.614 0.658013 1.65628 -0.0490616 0.696739 -0.715645
-1.6114 0.655757 1.66308 -0.467475 0.0579992 -0.882101
-1.58891 0.667033 1.64775 -0.530176 0.130172 -0.837836
