ply
format ascii 1.0
element vertex 865
property float x
property float y
property float z
property float nx
property float ny
property float nz
end_header
1.34475 0.892119 0.140058 0.452004 -0.865864 -0.214409
0.931595 0.900907 0.0905694 -0.999029 0.0227112 -0.0377558
0.888415 0.902438 0.0932982 0.0422249 -0.390049 -0.919825
1.24178 0.898458 0.197632 0.865994 -0.498962 -0.0330373
1.00457 0.88757 0.172367 0.662465 -0.496666 0.560771
1.02179 0.916916 0.202808 0.763242 -0.646092 0.00516632
0.921395 0.869245 0.177969 -0.927166 -0.126102 0.352791
0.906615 0.894293 0.176041 -0.925821 -0.159149 0.342822
1.3345 0.916868 0.0326527 0.682429 -0.463855 -0.564915
1.33259 0.911817 0.299108 -0.208346 -0.390429 -0.896748
0.860785 0.896632 0.19819 -0.362925 -0.780647 -0.508798
1.05189 0.888139 -0.267737 -0.513155 -0.525059 -0.678959
1.45465 0.862998 0.27157 -0.782939 0.544866 -0.300214
1.21811 1.01238 -0.305669 0.138298 -0.990051 0.0259359
0.919867 0.866924 -0.696126 -0.946135 -0.0168983 0.323332
0.94744 0.873099 -0.695403 -0.504357 -0.0877299 0.859027
0.898885 0.825317 -0.64959 0.850311 -0.497189 0.172554
0.966516 0.850754 -0.674093 0.446188 -0.893257 0.0548387
1.04689 0.849755 -0.667484 -0.613941 -0.713428 0.337782
0.963246 0.878556 -0.642396 -0.651196 -0.758344 -0.0293025
0.918845 0.864971 -0.609892 -0.645651 0.19247 0.738979
0.937478 0.873113 -0.653434 -0.431779 -0.873623 -0.224388
1.08413 0.881797 -0.614511 -0.590766 -0.706716 0.389291
1.0962 0.851715 -0.594544 0.714031 -0.698872 -0.0416957
1.07142 0.85974 -0.656687 -0.613941 -0.713428 0.337782
1.10296 0.844355 -0.623427 -0.891831 -0.0498588 0.449612
0.924645 0.855152 -0.417878 -0.857389 -0.187961 0.479119
0.948963 0.839336 -0.408899 -0.671341 0.225015 0.706165
1.13423 0.864405 -0.346103 -0.565755 -0.81836 0.101036
1.18315 0.174373 -0.204647 0.201354 -0.0128975 0.979434
1.35139 0.86318 -0.136051 -0.75281 0.343554 0.561469
1.2568 0.862644 -0.127985 -0.565079 -0.683421 -0.462192
1.21535 0.663886 -0.179723 -0.262355 -0.0337288 0.964382
1.05381 0.862076 -0.0699401 -0.998255 0.0254471 0.0532903
1.56049 0.872533 -0.0431976 0.469105 -0.450806 0.759417
1.66382 0.777215 0.0850074 0.410918 -0.819924 -0.398587
1.05335 0.875335 0.0707687 0.799967 -0.497554 -0.3354
1.65115 0.85494 0.106615 0.184706 -0.778645 -0.599662
1.22047 0.91829 -0.175188 0.320737 -0.119055 0.939656
1.19278 -0.14097 -0.208329 -0.380302 0.797359 0.468604
1.2178 -0.105477 -0.195223 -0.167891 -0.252005 0.953051
1.23976 -0.154523 -0.44411 -0.53335 0.845165 0.0351288
1.08452 0.853677 -0.593491 0.358396 -0.93341 -0.0172863
1.07952 0.858984 -0.822619 -0.471547 -0.881611 0.0201437
1.03396 0.886369 -0.816105 -0.295691 -0.951191 0.0883332
0.844647 0.871565 -0.732281 -0.4968 -0.710536 0.498326
1.00299 0.839378 -0.774443 -0.00909717 -0.964723 0.263109
0.913769 0.868474 -0.746829 -0.449873 -0.879963 0.152575
0.904602 0.882546 -0.721372 -0.588323 -0.715211 0.377292
1.27116 -0.158882 -0.530089 0.748284 -0.0189688 0.663107
1.00783 0.865572 -0.740685 -0.730204 -0.572094 -0.373511
1.02826 0.874256 -0.737742 -0.777048 -0.614504 0.136312
0.936998 0.876475 -0.655786 -0.431779 -0.873623 -0.224388
0.916681 0.843287 -0.692633 0.534771 -0.801489 -0.267648
1.24133 -0.161704 -0.460244 -0.848664 0.522679 -0.0810972
1.04596 0.895322 -0.492917 0.109392 -0.0482235 0.992828
1.10715 0.836604 -0.457119 0.479792 -0.810783 -0.335306
1.22249 1.00537 -0.420606 -0.809533 0.35659 0.466369
0.985409 0.859457 -0.246186 0.335586 -0.860512 -0.383276
0.999458 0.857996 -0.208063 -0.714842 -0.200332 0.669977
1.12614 0.773276 -0.265216 -0.823086 -0.0847357 0.561559
1.19584 -0.102342 -0.187257 -0.36952 -0.546365 0.751625
1.19186 -0.135981 -0.210327 -0.510808 0.447827 0.733844
1.22993 0.816907 -0.168366 -0.0342752 -0.0672965 0.997144
1.09145 0.873967 -0.0956329 0.695456 -0.695343 0.181217
1.60708 0.841531 -0.0605177 -0.855077 0.518436 0.00819502
1.28461 0.873998 -0.128836 -0.630065 0.366636 0.684541
1.00138 0.861739 -0.0342374 0.604798 -0.648932 0.461635
1.03372 0.860051 -0.00695636 0.119567 -0.801708 0.585634
1.48495 0.859028 0.077771 0.0936599 -0.995393 0.0205153
1.19696 -0.145441 -0.200653 -0.380302 0.797359 0.468604
1.21146 -0.144221 -0.192221 -0.31702 0.740927 0.592052
0.908847 0.859651 -0.81582 -0.265922 -0.960272 -0.0846402
1.23722 0.873157 -0.967765 0.572351 -0.0188107 0.819793
1.12749 0.783144 -0.872965 0.417767 -0.447643 0.790624
1.11856 0.814827 -0.86405 -0.449264 -0.89237 0.0428746
1.01528 0.744915 -0.749539 -0.967353 -0.226172 0.114341
0.912194 0.859552 -0.744268 -0.449873 -0.879963 0.152575
1.26019 -0.162881 -0.491501 0.700666 -0.169589 0.693042
0.94865 0.867578 -0.590888 -0.393409 0.248687 0.88509
1.11007 0.873231 -0.569841 -0.44895 -0.776676 0.441836
1.19734 -0.188351 -0.440814 -0.885757 0.379446 -0.267312
1.12477 0.868678 -0.555738 0.654061 -0.755768 0.0319247
0.995621 0.869501 -0.465245 0.31356 0.0397846 0.948735
1.05057 0.863921 -0.318986 -0.0855758 -0.768427 -0.634189
1.19551 0.911913 -0.364327 0.264942 -0.40827 0.873568
0.983736 0.852283 -0.122177 -0.252494 -0.90199 -0.35023
1.17349 0.191078 -0.189994 0.165726 0.124924 0.978227
1.44448 0.846755 -0.107562 -0.306858 -0.840077 0.447334
1.15164 0.861734 -0.0845054 0.705544 -0.337887 -0.622928
1.45164 0.807155 -0.00535095 0.597901 -0.792986 0.116996
1.33529 0.848471 0.00678259 0.304201 -0.117522 0.945331
1.14336 0.793646 -0.914552 0.496261 -0.380467 0.780365
1.07103 0.862521 -0.889539 -0.467283 -0.847548 0.251614
1.06342 0.849656 -0.712206 -0.660525 -0.745459 0.0894249
0.959369 0.865966 -0.515384 0.38813 -0.133818 0.911838
1.12842 0.855316 -0.414309 0.656715 -0.728813 -0.193794
1.19961 0.72814 -0.163743 -0.7366 -0.0676047 -0.672941
1.64953 0.873698 0.00466066 0.163488 -0.115403 0.979772
1.26535 0.811248 -0.00124517 0.477416 -0.838424 -0.262904
1.38975 0.86208 0.189156 -0.142716 -0.982031 -0.123477
1.17595 1.01694 -0.921626 -0.301916 -0.653345 -0.694253
1.057 0.845897 -0.821899 -0.471548 -0.88161 0.0201437
0.922059 0.904975 -0.678036 -0.425124 -0.904091 -0.0434688
0.94308 0.895724 -0.660547 -0.268785 -0.963071 -0.0158023
1.06863 0.866407 -0.662028 -0.613941 -0.713428 0.337782
0.91895 0.859092 -0.610053 -0.670072 0.0710505 0.738888
0.923016 0.87316 -0.612077 -0.645651 0.19247 0.738979
0.939047 0.855487 -0.514896 -0.379013 0.482854 0.789431
0.973457 0.897708 -0.30683 -0.229944 -0.779325 -0.582906
1.17872 0.822403 -0.205192 -0.419265 0.224738 0.879607
1.18614 0.768012 -0.206644 -0.336228 -0.330689 -0.881814
1.03725 0.896905 -0.0367043 0.235508 -0.304464 0.922951
1.92297 1.0046 0.169876 0.569802 -0.821629 0.0158755
0.828402 0.907328 -0.537095 0.865253 -0.495553 0.0759257
0.895325 0.812642 -0.339003 -0.536524 -0.736691 0.411618
0.989048 0.896434 -0.689719 0.323634 -0.863472 -0.386882
0.966026 0.86792 -0.64125 -0.818128 -0.574999 -0.00650267
0.949334 0.862633 -0.594679 -0.393409 0.248687 0.88509
1.02674 0.825821 -0.48174 -0.132061 0.0311882 0.990751
1.15117 0.869094 -0.444538 -0.759934 0.454902 0.464288
1.13591 0.878816 -0.416322 -0.889983 0.270065 0.367417
1.14375 0.88763 -0.312294 -0.44185 -0.784709 0.434742
0.813147 0.892704 -0.359029 0.68572 -0.696725 0.210624
1.14651 0.95132 -0.583372 0.91277 -0.370732 0.171487
0.950322 0.934913 -0.424226 -0.182233 -0.976674 -0.113572
0.950933 0.828071 -0.400529 -0.691397 0.261223 0.673597
1.06593 0.919225 -0.264425 -0.215799 -0.925926 -0.309987
1.11088 0.945507 -0.372155 0.734808 -0.182788 0.653181
1.05583 0.854822 -0.317849 -0.405075 -0.649708 -0.643268
1.45833 0.749707 -0.096465 -0.710031 -0.300313 0.636921
1.13826 0.852457 -0.345059 0.66331 -0.736629 0.131899
1.1936 0.8525 -0.201348 -0.990863 0.0455857 -0.126934
1.23004 0.595466 -0.173298 0.196875 -0.0200734 0.980223
0.884973 0.902157 -0.189197 -0.242822 -0.179292 0.953358
1.25787 0.871672 -0.201001 0.0612515 0.175178 0.98263
1.40192 0.852803 0.198465 0.118398 -0.791023 -0.60022
0.908353 0.879319 -0.636659 -0.594122 -0.610008 -0.524317
0.815384 0.922002 -0.600749 0.269101 -0.96252 0.0337529
0.937591 0.885664 -0.597134 -0.393409 0.248687 0.88509
0.835658 0.892062 -0.578641 -0.318366 -0.8279 -0.461762
0.978021 0.916978 -0.600896 0.677577 -0.715763 -0.169033
0.82808 0.899314 -0.567345 0.989016 -0.141231 0.0435977
1.03426 0.996268 -0.599714 0.234393 -0.960741 -0.148447
0.820583 0.900017 -0.557281 0.989016 -0.141231 0.0435977
0.922213 0.895051 -0.54724 -0.641642 -0.522579 0.561433
1.01067 0.85843 -0.549705 0.634724 -0.500949 -0.588366
1.11535 0.921743 -0.549571 -0.670035 -0.352271 0.653421
0.826448 0.885522 -0.509613 -0.834194 0.138026 0.533918
0.972232 0.905441 -0.524254 0.0976956 -0.720052 0.687009
0.845621 0.867959 -0.50764 0.643246 -0.647984 -0.407863
0.818123 0.909568 -0.489132 0.944328 -0.328366 -0.0205108
0.950785 0.884483 -0.497643 0.447699 -0.545448 0.708556
1.08893 0.908043 -0.507867 -0.151057 -0.977585 -0.14666
1.1325 0.953784 -0.509629 -0.759393 0.285413 0.58469
0.882286 0.928829 -0.474699 0.158107 -0.939447 0.304043
0.868744 0.894996 -0.461944 -0.843574 0.164612 0.511161
0.811875 0.867877 -0.514627 0.41776 -0.867532 -0.269936
0.993768 0.855361 -0.458763 0.311945 0.0418087 0.94918
0.975113 0.911994 -0.520663 0.213139 -0.905537 0.366843
1.06558 0.917041 -0.42529 -0.239662 -0.966079 0.0961959
0.880816 0.915198 -0.415057 -0.0657702 -0.992882 -0.0992969
0.843458 0.915915 -0.473922 0.387042 -0.882409 0.267495
0.756462 0.925118 -0.403392 -0.224481 -0.841441 -0.491513
0.842809 0.864562 -0.403672 0.180149 -0.548558 0.816474
0.858704 0.90515 -0.386148 0.663169 -0.642504 -0.38392
1.18176 0.971974 -0.375501 -0.022402 -0.682367 -0.730666
1.11518 0.930544 -0.362798 0.0984138 0.210208 0.972691
1.11137 0.985482 -0.359723 0.642122 -0.333318 0.690346
0.833838 0.919383 -0.414347 0.493903 -0.860682 -0.123637
1.00471 0.921469 -0.343425 -0.320075 -0.70191 0.636298
1.08034 0.862383 -0.344437 0.459582 0.185174 0.868617
1.05271 0.858583 -0.342182 -0.244062 -0.508655 -0.825654
0.973936 0.935848 -0.338984 0.167081 -0.849737 0.50003
1.09814 0.825295 -0.336255 -0.745404 -0.232327 -0.624818
0.953126 0.92156 -0.33517 0.516724 -0.693227 0.502427
0.938909 0.914994 -0.33169 0.594857 -0.379151 0.708795
0.917004 0.900091 -0.329053 -0.155918 -0.55148 -0.819487
1.06289 0.850677 -0.329774 -0.405075 -0.649708 -0.643268
0.894033 0.924049 -0.323447 -0.510916 -0.657137 -0.554198
1.00072 0.857917 -0.3208 0.204465 0.357308 0.911331
0.874475 0.935294 -0.319391 -0.486169 -0.346209 -0.802358
0.856785 0.935053 -0.316395 0.191448 0.222888 0.95586
0.899985 0.89346 -0.314881 -0.223553 -0.643207 -0.732331
0.798184 0.920163 -0.306991 -0.11069 -0.262266 0.958626
0.915841 0.886105 -0.305963 -0.573722 -0.637899 -0.51374
0.773171 0.925941 -0.301809 0.128899 -0.738707 0.661587
0.816363 0.901136 -0.361777 0.625366 -0.651922 0.428852
1.16031 0.886957 -0.299268 0.883831 -0.438112 -0.164014
0.753114 0.915893 -0.299014 0.300019 -0.563392 0.769791
0.727637 0.914077 -0.294638 0.384482 -0.0683442 0.920599
1.17507 0.898132 -0.362385 0.77301 -0.515324 0.369995
0.873792 0.924121 -0.354093 -0.140605 -0.933375 0.330215
0.811879 0.854444 -0.289673 0.181413 -0.970099 -0.161239
0.965752 0.9263 -0.346305 0.198698 -0.818888 0.538462
0.781309 0.891271 -0.283075 0.563437 0.256638 0.785287
0.756736 0.885482 -0.278791 0.0269389 -0.938336 -0.344672
0.733155 0.891201 -0.276114 0.257553 -0.610524 -0.748951
0.850977 0.918039 -0.324762 0.131507 0.0560569 0.989729
0.925326 0.849489 -0.318888 -0.233067 0.0576861 0.970748
1.00594 0.909375 -0.242799 0.394917 -0.540242 0.743088
0.989444 0.931904 -0.238242 0.0566905 -0.916098 0.396926
0.919145 0.903481 -0.419526 0.83926 -0.505939 -0.199167
0.881493 0.89181 -0.290654 -0.136369 -0.69042 -0.710439
0.809694 0.899403 -0.216926 -0.679706 0.149449 0.718098
0.892368 0.908992 -0.184895 0.509978 -0.830293 -0.224802
1.00803 0.913672 -0.242476 0.580627 -0.37075 0.724856
0.992318 0.940766 -0.235851 -0.130142 -0.978967 -0.15712
0.89997 0.903403 -0.170804 0.899662 -0.3628 -0.242869
0.996413 0.883792 -0.146525 -0.432038 -0.593132 -0.679366
0.893049 0.908707 -0.149522 0.623391 -0.610343 0.488738
1.01669 0.901713 -0.1934 -0.646634 -0.73807 -0.192658
0.904705 0.904126 -0.167754 0.769775 -0.634348 -0.0710533
0.906004 0.946963 -0.274251 0.272316 -0.902591 -0.333427
0.892958 0.917576 -0.125256 0.0238769 -0.373997 0.927123
0.909418 0.924177 -0.0456219 0.29268 -0.66523 -0.686882
0.925144 0.951104 -0.0900767 0.245983 -0.941857 0.228907
0.923372 0.915906 -0.0649287 0.854194 -0.514019 -0.0783375
0.741403 0.880373 0.0543687 0.104817 -0.983214 0.149342
1.20268 0.866983 0.207517 0.114671 -0.955324 0.272409
1.26877 0.707436 -0.163168 0.0982728 -0.241922 0.965306
1.61158 0.90388 0.144269 -0.670511 0.281345 -0.686484
0.93909 0.921887 -0.430078 -0.126556 -0.963943 -0.234087
0.831006 0.891765 -0.414901 -0.804077 0.160836 0.572356
0.761239 0.873806 -0.344547 -0.608251 -0.702195 -0.370071
0.949468 0.888689 -0.274947 -0.787493 0.0100043 0.616243
1.1756 0.894547 -0.232368 -0.202218 0.297348 0.933109
1.00957 0.836853 -0.100063 -0.987921 -0.112928 0.106106
1.00386 0.884113 -0.0923974 0.853855 -0.511143 0.0983125
1.09159 0.880586 -0.131932 0.684228 -0.714785 -0.144617
1.11352 0.88441 -0.03163 0.881561 -0.426611 -0.202121
1.01696 0.895666 -0.0235325 -0.673918 -0.737874 0.0371006
1.21243 0.199661 -0.194758 0.201354 -0.0128975 0.979434
1.01563 0.94244 -0.0853271 0.750186 -0.194134 0.632086
1.01695 0.89075 -0.0230596 -0.932341 -0.145268 0.331117
1.54859 0.920903 0.178642 0.00638523 -0.326054 0.945329
1.69077 0.896641 0.125052 -0.00300306 -0.56956 -0.821944
1.33193 0.89772 0.197625 0.610697 -0.538296 0.580764
1.81376 0.850942 0.383845 -0.904461 0.414135 -0.102186
1.17032 0.848403 0.256433 -0.210589 -0.910438 -0.356026
0.934339 0.901413 -0.617284 0.210978 -0.918071 -0.335609
1.0182 0.916432 -0.557239 -0.0610015 -0.996469 -0.0576983
1.07893 0.903365 -0.543152 0.957834 -0.0537751 0.282245
1.10072 0.930838 -0.546773 0.843203 -0.52871 0.0973327
0.916228 0.910803 -0.510499 -0.65209 -0.749699 -0.112825
1.13687 0.923451 -0.501625 -0.723615 0.343363 0.598735
1.04269 0.919099 -0.487474 0.297172 -0.933923 0.198686
0.977975 0.907521 -0.477516 -0.251215 -0.960795 0.117322
0.828671 0.909546 -0.473781 0.870569 -0.466148 0.157532
0.841894 0.910867 -0.436596 0.300309 -0.953784 0.0105026
0.974692 0.906011 -0.398824 -0.48495 -0.0980151 0.869032
0.935142 0.915818 -0.39131 0.0861238 -0.805687 -0.586046
1.15095 0.916986 -0.368375 -0.467981 -0.75858 0.453377
0.976373 0.904207 -0.371985 -0.0686974 -0.795297 0.602315
0.851759 0.910083 -0.374764 0.349197 -0.870577 -0.346637
0.971948 0.935876 -0.36819 -0.649174 -0.722081 0.239105
0.932209 0.922624 -0.430034 0.877852 -0.382662 0.288003
0.755315 0.908066 -0.351564 0.975862 -0.218172 0.00968125
0.803743 0.857242 -0.341624 0.505791 -0.830657 -0.232777
0.879513 0.91433 -0.335128 -0.202175 -0.65891 -0.724543
0.768696 0.906641 -0.32361 0.972579 -0.0761634 -0.219747
0.928932 0.877099 -0.292727 -0.306642 -0.660306 0.685541
1.18593 0.885536 -0.304281 -0.421468 -0.569374 -0.705817
0.833207 0.930491 -0.330483 0.193844 -0.37808 0.905251
1.14772 0.903375 -0.230447 0.155934 -0.248154 0.956088
0.966562 0.904858 -0.245037 -0.845073 0.116684 0.521763
1.0846 0.842638 -0.301103 -0.558797 -0.780647 0.279886
0.811872 0.942105 -0.318394 0.235563 -0.96471 0.117661
1.15702 0.801165 -0.194968 -0.957452 -0.0929107 -0.273228
0.766934 0.924812 -0.231499 -0.644056 -0.575813 0.503618
1.18929 0.980456 -0.161875 -0.546502 -0.813102 0.200501
1.03268 0.872541 -0.180725 -0.145873 -0.87391 -0.463683
1.27732 0.871593 -0.120491 -0.764629 0.140258 -0.629023
1.48233 0.851674 -0.0710767 -0.366031 -0.930386 0.020072
1.13878 0.944816 -0.184637 0.258802 -0.566798 0.782152
0.872231 0.896905 -0.140105 -0.341263 -0.828356 0.444258
1.18195 0.921944 -0.0737685 0.426346 -0.347196 -0.835275
1.10497 0.895566 -0.0908145 0.338664 -0.939049 0.0591089
0.862549 0.922676 -0.129505 0.322522 -0.921769 -0.215226
1.07947 0.941518 -0.0808918 -0.579705 -0.764805 -0.281095
0.896653 0.907256 -0.117394 0.478059 -0.775327 -0.412707
1.64661 0.862363 0.00875314 0.600844 -0.796797 -0.0640402
0.84667 0.906579 -0.118791 -0.947996 -0.103346 -0.301036
1.31029 0.856072 -0.0234866 0.407375 -0.809801 -0.422218
1.18057 0.902508 -0.0476491 -0.737075 -0.230305 -0.635359
1.06502 0.879956 -0.0657815 -0.98487 0.124199 -0.120856
1.50358 0.863144 0.0124371 0.524281 -0.835362 0.165225
0.961826 0.891554 -0.0620172 -0.253627 -0.0413494 0.966418
1.12902 0.89516 -0.0181183 0.811327 -0.582661 0.0474816
0.886397 0.899677 -0.0616579 -0.0125756 0.0412992 0.999068
0.873367 0.912132 -0.0653854 0.0842644 -0.238103 0.967578
0.857901 0.915154 -0.0618742 -0.678531 -0.279899 0.679155
0.793794 0.887033 -0.0628444 0.160489 -0.986846 -0.019432
1.31858 0.940375 -0.0250583 -0.377334 0.0906008 0.921635
1.53096 0.915808 0.0969448 0.199538 -0.537339 0.819421
1.7507 0.882825 0.141128 -0.954355 0.0267903 -0.29747
1.05064 0.892574 0.00312878 -0.220664 -0.107417 0.969417
1.67462 0.857349 0.134392 0.354944 -0.629273 -0.691397
1.75576 0.836325 0.142393 -0.740408 0.110036 -0.66309
0.919032 0.908614 0.00687396 0.235712 -0.960648 -0.146954
1.52367 0.80208 0.157987 0.529323 -0.824307 0.200836
1.04328 0.883898 -0.000829053 -0.197722 -0.0331764 0.979697
1.06781 0.909811 0.0832922 0.564205 -0.47076 -0.678276
0.7282 0.935254 0.0123339 -0.263668 -0.788085 0.556238
1.46883 0.907938 0.186748 0.154717 -0.560073 0.813868
0.853506 0.873497 0.0326629 0.752867 -0.420078 0.506681
0.938982 0.893181 0.0697701 0.977086 -0.100161 0.187805
1.35211 0.927608 0.221616 -0.398301 -0.37943 0.835098
1.04588 0.880649 0.140507 0.496555 -0.447872 0.743535
1.29382 0.823148 0.208114 0.349338 -0.91642 0.195286
1.25017 0.91611 0.234291 0.121883 -0.731017 0.671386
1.36122 0.981796 0.0523735 0.649419 -0.448958 -0.613752
0.912842 0.907596 0.165018 0.742499 -0.666785 -0.0639796
1.18296 0.8827 0.243141 -0.216672 0.196562 -0.956251
1.16712 0.93206 0.255917 -0.303282 -0.940802 0.151364
1.123 0.92114 0.258756 0.337082 -0.42301 0.841094
1.12057 0.876267 0.250329 0.0745594 -0.297143 -0.951918
1.24164 0.897882 0.304006 0.210339 0.106796 -0.971778
0.771079 0.895989 0.160333 0.958036 -0.176394 0.225945
1.10099 0.861535 0.267871 0.438877 -0.560587 0.702232
0.923991 0.902456 0.224763 0.854717 -0.46068 -0.239234
1.71671 0.849871 0.186149 0.172961 -0.984908 -0.00634815
1.44356 0.857939 0.299728 -0.790887 0.368199 -0.488802
1.4716 0.885566 0.282447 -0.849164 0.48595 -0.206817
1.70328 0.862123 0.435291 -0.19903 0.219555 -0.955083
1.74536 0.830763 0.154646 0.327143 -0.94494 0.00814521
1.41685 0.844926 0.21918 0.564968 -0.797649 -0.211108
1.80948 0.836283 0.411738 -0.849946 0.471892 -0.234327
1.7485 0.83359 0.41817 0.136807 -0.962789 -0.233067
1.8246 0.836696 0.488535 -0.811016 0.442292 0.382923
1.62988 0.853289 0.361446 0.112982 -0.968132 0.223507
0.893491 0.897952 -0.586573 -0.737721 -0.660808 0.138206
0.915354 0.916286 -0.54406 -0.88107 -0.0734016 0.467255
0.937292 0.903135 -0.52239 0.0890176 -0.723423 -0.684642
0.918976 0.895098 -0.485207 0.262087 -0.305213 0.915508
1.17151 0.975764 -0.475947 0.863667 -0.414305 -0.287109
0.984786 0.852043 -0.360224 -0.911965 0.229049 0.340377
0.975577 0.884123 -0.258202 -0.819982 -0.18367 0.54212
0.987883 0.917582 -0.221752 0.351938 -0.920017 0.17236
1.20757 0.881096 -0.170094 0.479529 -0.51626 0.709597
0.977748 0.917971 -0.210528 0.73341 -0.606464 -0.307102
0.991878 0.910058 -0.203169 0.42978 -0.580168 -0.691877
1.20577 0.905675 -0.155002 0.14266 -0.511879 0.847129
1.55866 0.835498 -0.0532383 0.330207 -0.632512 0.700636
1.08989 0.885918 -0.133683 0.684228 -0.714785 -0.144617
1.04587 0.897428 -0.142655 0.0425668 0.0930996 0.994746
1.03612 0.899625 -0.131835 -0.463715 0.142082 0.874518
1.02632 0.900985 -0.114331 0.664589 -0.737345 0.121013
0.938427 0.90599 -0.134024 -0.0620335 -0.971549 -0.228571
1.60131 0.88025 0.0157098 -0.641331 -0.404149 0.652195
0.784121 0.914012 -0.130467 0.151712 -0.956534 -0.249051
1.5829 0.883075 0.0646894 -0.862002 -0.0877921 -0.499245
1.81051 0.892472 0.134858 -0.705301 0.0717645 -0.705266
1.63718 0.847756 0.00428287 0.110553 -0.76005 0.640392
1.64215 1.12282 0.131822 -0.937134 0.318132 0.143429
1.46831 0.893472 0.058196 -0.398373 -0.91291 0.0888439
1.067 0.910449 -0.0346561 -0.992502 0.0123585 -0.121601
1.67592 0.881572 0.111922 -0.507608 0.270025 0.818181
1.02058 0.916215 -0.0420044 -0.0406696 -0.415698 -0.908593
0.977369 1.04238 -0.0334966 -0.248751 -0.571482 0.782005
1.343 0.909975 0.0557445 0.424839 -0.345386 -0.836792
1.55046 0.934951 0.132009 -0.526938 -0.712726 0.462987
0.920968 0.899992 -0.0324401 -0.979122 -0.0302049 0.201016
1.03593 0.952037 0.0131449 -0.0676577 -0.969844 -0.234147
1.23415 0.851788 0.0580544 -0.139767 -0.811291 0.56769
1.30439 0.854079 0.0199788 0.507001 -0.843471 0.177501
0.868282 0.924964 -0.0144556 0.984712 -0.0336275 0.170911
0.978019 0.901595 0.018471 0.443602 -0.671104 0.594
1.5307 0.84029 0.18435 0.566361 -0.506886 0.649847
1.34622 0.890711 0.141911 0.452004 -0.865864 -0.214409
0.873725 0.898938 0.013846 -0.918445 -0.0858974 -0.38611
1.10241 0.91849 0.0877583 -0.0376748 -0.220901 0.974568
0.923688 0.904291 0.0345757 0.969486 -0.168693 -0.177875
1.58796 0.846209 0.248111 -0.655367 0.484825 -0.57917
1.22997 0.894957 0.155372 0.806492 -0.58958 0.0443397
0.815325 0.898759 0.0290757 0.0662035 -0.481344 0.874028
0.928793 0.914431 0.0723445 0.93791 -0.315517 -0.144132
0.859598 0.9004 0.055049 0.779536 -0.522099 0.34603
1.52222 0.854533 0.264752 0.0366477 -0.54223 0.839431
0.93374 0.916036 0.0983103 0.361849 -0.52531 0.77014
0.862737 0.906131 0.0779102 0.599982 -0.799981 -0.00722254
0.887519 0.905645 0.0985075 0.0422249 -0.390049 -0.919825
0.839263 0.901284 0.0852399 0.295487 -0.923823 -0.243388
0.758253 0.90138 0.10838 -0.663544 -0.700404 0.262951
1.65521 0.872307 0.434895 -0.0222903 0.163834 -0.986236
1.25665 0.843567 0.302841 -0.305163 -0.774168 -0.554562
0.910731 0.901949 0.181999 -0.944183 -0.078567 0.319914
0.924037 0.909391 0.204834 0.787047 -0.55573 -0.267808
1.79819 0.836777 0.415314 0.579277 -0.764205 0.2836
1.12591 0.88392 0.281178 -0.528458 0.283439 -0.800246
1.18794 0.856127 0.297344 -0.801842 -0.264893 0.535613
0.852092 0.905951 0.213506 -0.384034 -0.915423 -0.120491
1.81742 0.848788 0.486194 -0.48827 -0.326181 0.809443
1.16742 0.843042 0.262988 -0.508926 -0.860548 -0.0212508
1.47949 0.880564 0.417846 -0.647302 -0.630127 0.428882
1.14826 0.900593 0.387325 -0.868369 -0.414044 0.272952
1.99482 1.00811 0.795788 0.572764 -0.776754 -0.261906
0.73298 0.910454 0.241762 0.67557 -0.388673 0.626529
0.791776 0.900605 0.270156 0.450121 -0.612019 -0.650249
1.85034 0.896838 0.718256 0.157542 -0.940097 0.302321
0.827591 0.896565 0.31292 0.671294 -0.18178 0.718554
1.38629 0.843454 0.220442 0.111887 -0.897298 -0.42701
1.09095 0.915339 -0.188901 0.459134 -0.887435 0.0406739
1.41894 0.860959 0.179442 0.151923 -0.215228 0.964674
0.832959 0.894429 0.29829 -0.886757 -0.347013 0.305359
1.12486 0.867715 -0.535196 0.614743 -0.788727 -6.92873e-05
1.13516 0.887569 -0.507923 -0.598514 -0.419823 0.682297
1.10346 0.890726 -0.464555 -0.230029 -0.682669 -0.693578
0.974106 0.904391 -0.401921 -0.48495 -0.098015 0.869032
1.20289 0.867689 -0.20127 0.581678 -0.812324 0.0422
1.62788 0.936145 -0.0976709 0.516913 -0.854223 0.0557118
1.65975 0.886514 -0.0209852 0.703943 -0.705754 -0.0798468
1.05396 0.921518 -0.122304 0.577559 -0.541573 0.61084
1.28722 0.859479 -0.123858 -0.426079 -0.272275 -0.862742
1.59368 0.903093 -0.0380754 -0.803772 -0.324712 0.498511
1.79446 0.89905 0.119348 -0.646968 0.400155 -0.649083
1.53753 0.907999 0.0808514 0.199538 -0.537339 0.819421
1.10904 0.850478 -0.00589271 0.926976 -0.341508 -0.155202
0.976348 0.901405 -0.0144931 0.52237 -0.584393 0.620978
1.82113 0.885134 0.332032 -0.839881 0.51678 0.165947
1.58134 0.841777 0.263406 0.666589 -0.642161 0.378535
0.864131 0.894874 0.0272354 0.844533 -0.280167 0.456366
1.53235 0.848092 0.282113 -0.198576 -0.687928 0.698085
1.46872 0.842539 0.289978 -0.479466 -0.424931 -0.767819
1.78219 0.842739 0.122383 -0.88678 0.306714 -0.345758
1.81625 0.890981 0.331358 -0.839881 0.51678 0.165947
1.63309 0.867632 0.364036 0.112982 -0.968132 0.223507
1.03054 0.878141 0.161366 -0.607073 0.000178223 -0.794646
1.00634 0.860859 0.173184 -0.657089 0.0022696 -0.753809
0.877738 0.90965 0.147107 -0.142884 -0.985593 -0.0905001
1.21116 0.938991 0.314647 -0.0727006 -0.487011 0.870365
1.63568 0.862304 0.522046 0.372788 -0.557928 -0.741448
1.52514 0.85665 0.515849 0.250372 -0.757142 0.603365
1.1139 0.897538 0.342762 0.848193 -0.527016 0.0531323
1.69623 0.835198 0.507429 0.0557619 -0.961626 0.268637
1.04402 0.89663 0.343067 0.468982 -0.776424 0.420976
1.85446 0.81496 0.715961 0.395913 -0.892049 -0.217947
1.42766 0.878479 0.438065 0.510284 -0.806079 0.299746
1.60854 0.86062 0.354923 0.496038 -0.865335 0.0717007
1.06982 0.858939 0.390239 -0.775932 -0.449434 -0.44265
1.38544 0.871039 0.547162 -0.59754 -0.801412 -0.0261635
1.43152 0.873704 0.574634 -0.145078 -0.971421 -0.187866
1.16641 0.919311 0.210173 -0.740001 -0.500003 0.449884
1.8788 0.931329 0.828185 -0.921832 -0.367123 0.124286
1.24208 0.867897 0.504757 0.190541 -0.910131 -0.367908
0.914686 0.870564 0.357937 0.279277 -0.856075 0.434902
1.73982 0.882385 0.769531 -0.356596 -0.532471 0.767668
1.13477 0.856142 0.38111 0.235537 -0.964211 -0.121732
1.45211 0.872426 0.541792 0.0725903 -0.992524 0.0981169
1.39138 0.847884 0.603164 0.0586735 -0.628894 0.775274
1.88974 0.889613 0.755727 0.214605 -0.976502 -0.0197302
0.904636 0.91175 0.394639 0.995719 -0.0907958 -0.0173244
1.14773 0.86101 0.44563 0.92437 -0.37915 0.0422617
1.20951 0.864832 0.213134 0.114671 -0.955324 0.272409
1.14591 0.907801 -0.492304 0.232543 0.041812 0.971687
1.36959 0.881607 -0.105814 -0.447206 -0.442226 -0.777459
1.08846 0.895037 -0.19192 0.587358 -0.799104 -0.128232
1.06308 0.876747 -0.0896744 -0.968502 0.150901 0.19807
1.03582 0.942658 -0.08859 0.499291 -0.834091 0.234522
1.0519 0.886994 -0.0826636 0.962103 -0.257263 -0.0904031
1.07097 0.886167 -0.0640724 -0.98487 0.124199 -0.120856
1.05297 0.877435 -0.0673154 -0.98487 0.124199 -0.120856
1.55533 0.867814 0.155807 0.171048 -0.924136 0.341636
1.08374 0.879592 0.091633 -0.0991419 -0.138233 0.985425
1.61807 0.869123 0.379794 0.665882 -0.666206 0.335813
1.84604 0.867191 0.56947 -0.801121 0.562752 0.203756
1.48148 0.85489 0.409498 0.269429 0.00701663 -0.962995
1.0911 0.865046 0.231246 0.512726 -0.709053 -0.484103
1.34142 0.87378 0.353535 -0.779193 0.139849 -0.610983
1.17626 0.865035 0.286177 -0.629599 -0.331778 0.702516
0.911352 0.889038 0.159479 -0.941658 -0.294504 0.162935
1.23158 0.881127 0.402588 0.174046 -0.975671 -0.133318
1.19758 0.85827 0.31338 -0.801842 -0.264893 0.535613
1.13634 0.900527 0.40874 -0.899225 -0.41146 0.148645
0.770383 0.895971 0.211895 0.286818 -0.953063 0.0969911
1.35341 0.866619 0.536445 0.78294 -0.620859 0.0392292
1.03 0.886376 0.363711 -0.283383 -0.599502 0.748526
1.89166 0.921004 0.869444 -0.0490227 -0.846147 -0.530689
1.68354 0.86521 0.728379 0.40201 -0.796846 -0.451025
1.12635 0.873521 0.419561 0.964068 -0.225229 -0.140873
1.27702 0.865067 0.529397 0.347214 -0.918011 -0.19157
1.13042 0.869474 0.461826 0.234248 -0.940423 0.246439
1.07906 0.901076 0.442108 0.205992 -0.676019 0.707506
1.3808 0.851107 0.606391 0.400913 -0.838796 0.36836
1.1459 0.867908 0.473775 0.0220359 -0.957365 0.288039
1.96754 0.937229 0.986957 -0.678896 0.706724 -0.1991
1.58124 0.864386 0.677625 0.679796 -0.268027 -0.682671
1.05113 0.896902 0.464653 -0.86521 -0.336626 -0.371609
1.43274 0.884591 0.696541 0.401033 -0.532975 -0.745057
1.74596 0.896553 0.89956 -0.0389926 -0.99838 -0.0414374
1.14709 0.889797 0.539009 0.703253 -0.599239 -0.382556
0.89137 0.900037 0.388028 0.873731 -0.458441 0.162561
1.09878 0.867369 0.511306 -0.433078 -0.791015 0.432133
1.88206 0.909015 1.00879 0.425681 -0.896659 -0.121652
1.07334 0.862111 0.504083 -0.295375 -0.948756 0.112323
1.28101 0.853785 0.540913 -0.197569 0.202102 -0.95923
1.2052 0.920028 0.607572 -0.375527 -0.55056 0.745562
1.3032 0.873381 0.648241 0.790378 -0.26064 -0.554408
1.49003 0.86668 0.773749 0.370447 0.359687 -0.856384
1.2295 0.879114 0.607413 -0.289069 -0.821761 -0.491068
1.33948 0.919839 0.697295 -0.397864 -0.877578 -0.26751
1.21334 0.889997 0.617544 0.171916 -0.276715 -0.945449
1.44219 0.909976 0.778743 -0.209352 -0.894221 0.395651
1.70484 0.859943 0.435213 -0.19903 0.219555 -0.955083
1.79648 0.870231 0.708058 -0.977981 -0.179705 -0.10611
1.16364 0.921306 -0.348551 -0.512244 -0.778102 -0.363542
1.09647 0.863173 -0.353161 0.152791 0.099595 0.983227
1.11222 0.908033 -0.339479 0.0320892 0.25049 0.967587
1.08464 0.921203 -0.334739 0.28699 -0.820441 -0.494483
1.06327 0.915209 -0.331715 -0.00894146 -0.329997 0.94394
1.06959 0.919568 -0.307252 -0.268053 -0.962754 -0.0353835
1.47181 0.862696 -0.10244 -0.741012 0.533641 0.407588
1.26951 0.885798 -0.155174 0.397199 -0.90195 -0.169468
1.6812 0.90261 0.0131891 -0.186188 -0.200988 0.961737
1.2791 0.841526 -0.116908 -0.47794 -0.479556 -0.735935
1.20777 0.790044 -0.199333 -0.561969 -0.0900148 0.822246
1.74068 0.852241 0.133195 -0.822333 0.466402 -0.325942
1.69906 0.866398 0.12923 -0.491675 0.236033 0.838179
1.75468 0.89931 0.164082 -0.953998 -0.189865 -0.232032
1.31659 0.892918 0.00700253 -0.948431 -0.0607502 0.311107
1.62434 0.857217 0.143175 -0.638756 -0.606124 -0.473924
1.52591 0.865362 0.162055 0.0590107 -0.252959 0.965676
1.76294 0.851758 0.198609 0.188302 -0.943546 -0.272512
1.48532 0.86994 0.176798 -0.208862 0.00438348 -0.977935
0.96504 0.895528 -0.0604021 -0.566418 -0.461987 0.682451
1.45474 0.861491 0.183048 0.150683 -0.298774 0.942353
1.54567 0.859092 0.196009 -0.0835456 -0.981854 0.170242
1.33534 0.867046 0.210031 -0.0125522 -0.436408 -0.899661
1.48639 0.841779 0.203809 0.0508015 -0.945503 -0.321626
1.30624 0.859059 0.21499 0.565006 -0.825068 -0.00547986
1.3205 0.848879 0.230083 0.0539263 -0.588908 0.806399
1.28971 0.85008 0.2359 0.2053 -0.9512 0.230369
1.59373 0.879256 0.126624 0.0692487 -0.726256 0.683927
1.26974 0.857305 0.235874 -0.231994 -0.965526 0.118064
1.23784 0.870981 0.226349 -0.00253513 -0.995059 -0.0992487
1.36916 0.863696 0.291903 -0.483853 -0.742322 -0.463513
1.27742 0.85063 0.270382 -0.0841073 -0.996443 0.00516498
1.19803 0.86783 0.233352 0.366022 -0.754495 0.544761
1.1748 0.866672 0.237066 -0.327486 -0.208222 -0.921627
1.46843 0.893811 0.319306 0.12463 -0.859637 0.495471
1.15744 0.870906 0.241269 -0.220386 0.191433 -0.956443
1.11549 0.871022 0.249104 -0.294123 -0.50287 -0.812781
1.1409 0.883136 0.262731 -0.049889 -0.946761 0.318049
1.86146 0.871315 0.718882 0.0387629 -0.882573 0.468575
1.07944 0.861864 0.270935 0.0365361 -0.989981 0.13639
1.22969 0.86438 0.293314 -0.146995 -0.331601 -0.931898
0.924064 0.903042 0.201548 0.787047 -0.55573 -0.267808
1.81495 0.892884 0.747012 -0.028137 -0.947402 -0.318807
1.31575 0.866716 0.457686 0.323298 -0.552533 -0.768236
1.23296 0.857014 0.420757 0.168618 -0.985024 0.0360025
1.35194 0.857498 0.514052 -0.772406 0.483326 -0.412051
0.967725 0.883237 0.273611 0.126401 -0.719404 0.682993
1.6726 0.854202 0.742121 -0.190288 -0.961058 0.200395
1.61798 0.857665 0.735099 0.254957 -0.945263 -0.203653
0.930474 0.867615 0.29768 0.19132 -0.942437 0.274245
1.65388 0.86137 0.773908 0.196232 -0.822446 -0.533925
1.61011 0.859222 0.756198 0.521713 -0.824115 0.220566
1.48451 0.844091 0.407179 0.375707 -0.914256 0.151593
1.01382 0.866864 0.293426 -0.296935 -0.952567 -0.0666715
1.25374 0.898667 0.301774 0.463504 -0.149063 -0.873467
1.57561 0.882625 0.780633 -0.238655 -0.854115 -0.462095
1.62642 0.894847 0.82444 0.491884 -0.787616 0.371095
0.875866 0.874253 0.30714 0.461808 0.070153 -0.884201
1.53231 0.865537 0.770854 -0.429112 -0.877406 -0.214526
1.58769 0.866438 0.801268 0.0662034 -0.96616 -0.249304
1.67943 0.875778 0.763332 0.12529 -0.982073 -0.140836
0.85709 0.87549 0.310062 -0.480593 -0.780601 0.399615
1.15562 0.865811 0.531602 -0.0270609 -0.731392 -0.68142
1.52749 0.853249 0.790133 -0.276772 -0.954225 0.113369
1.13087 0.897665 0.47283 -0.31778 -0.558329 -0.766345
1.24647 0.901844 0.651921 -0.258814 -0.947447 -0.188041
0.80299 0.927855 0.342718 0.0821265 0.249356 -0.964923
1.32913 0.856816 0.609608 -0.303292 -0.903423 0.303053
1.03141 0.870512 0.496866 0.520869 -0.736461 0.431648
1.44658 0.888705 0.809466 0.244221 -0.284585 -0.927021
1.07514 0.862503 0.543631 0.0418417 -0.831922 0.553313
1.59709 0.865572 0.151987 0.701281 -0.589652 -0.400643
1.79244 0.872004 0.752182 -0.467856 0.526771 -0.709664
1.00692 0.870404 0.274946 -0.108458 -0.833761 0.541368
1.44514 0.856352 0.603613 0.112174 -0.992912 0.0392894
1.89913 0.868369 1.03737 -0.130012 -0.990184 0.0513125
1.6652 0.876436 0.923908 -0.441545 -0.807888 -0.390326
1.64359 0.889825 -0.138995 -0.767829 0.182189 0.614203
1.55224 0.89249 -0.169266 -0.251297 -0.82446 0.507066
1.46697 0.877816 -0.162621 0.0867035 -0.834083 -0.544783
1.41379 0.889333 -0.183861 0.281542 -0.519288 -0.806892
1.17039 0.877819 -0.236724 -0.107235 0.162383 0.980883
1.13965 0.87926 -0.227246 -0.0268312 -0.0853433 0.99599
1.39747 0.868442 -0.111261 -0.48712 -0.833782 0.259847
1.48577 0.83915 -0.0173645 0.656938 -0.752524 0.0462587
1.65139 0.858834 0.00803904 0.600844 -0.796797 -0.0640402
1.67618 0.872127 0.109282 -0.507608 0.270025 0.818181
1.70902 0.850986 0.138413 0.293371 -0.221683 -0.929941
1.27037 0.871642 -0.117802 -0.764629 0.140259 -0.629023
1.66086 0.851303 0.149047 0.0398996 -0.997556 0.0573515
1.4987 0.857757 0.0839885 0.507958 -0.820141 -0.26334
1.72871 0.847881 0.209731 0.121613 -0.905498 -0.406551
1.17398 0.884853 -0.0498578 0.869991 -0.486397 -0.0808276
1.68962 0.885616 0.122417 -0.488092 0.224567 0.843407
1.29383 0.88303 -0.0290157 0.751777 -0.65097 -0.105214
1.12673 0.888822 -0.0190847 0.874601 -0.446017 -0.190113
1.18407 0.866124 0.0173039 -0.788805 0.237279 0.566997
1.05465 0.851367 -0.0387144 -0.759188 -0.646989 0.0709784
1.49593 0.838733 0.1908 0.0183724 -0.441639 -0.897005
1.12035 0.891702 0.0216141 0.611763 -0.561206 -0.557489
1.5861 0.841992 0.180526 -0.188948 -0.934 -0.303219
1.06621 0.885293 0.0218979 -0.939317 0.176055 0.29443
1.06979 0.88229 0.0400383 0.75624 -0.59804 -0.265423
1.22751 0.869996 0.152029 0.357807 -0.828022 0.431686
1.04876 0.897256 0.00241484 -0.220664 -0.107417 0.969417
1.27045 0.838991 0.134147 -0.0648865 -0.290466 -0.954683
1.33291 0.893741 0.195419 0.610697 -0.538296 0.580764
1.06159 0.874461 0.0761976 0.57589 -0.398404 -0.713881
1.20945 0.877785 0.251739 0.267122 -0.404729 0.874552
1.46939 0.851232 0.415921 0.0145237 -0.345731 -0.938221
1.39878 0.861721 0.470268 0.365685 -0.813847 0.451583
1.80467 0.829469 0.729698 -0.470615 -0.847749 0.244629
0.926168 0.890071 0.168455 0.639268 -0.311722 -0.70297
1.33829 0.913507 0.389225 0.397858 -0.822504 0.406444
1.04135 0.858552 0.277128 -0.486938 -0.870658 0.0696066
1.01906 0.881948 0.28576 0.310317 -0.381438 0.870752
1.57588 0.847652 0.693702 0.697247 -0.38519 -0.604546
1.21205 0.862554 0.4437 0.206258 -0.949459 0.236612
1.13144 0.877034 0.317483 0.262283 -0.671928 0.692618
1.38207 0.844257 0.576558 -0.986213 0.122675 -0.11106
1.36512 0.860047 0.559192 -0.559652 -0.619214 0.550784
0.963071 0.868248 0.292301 -0.112148 -0.975388 -0.189846
1.04346 0.865836 0.354287 -0.563338 -0.233318 0.792599
1.17321 0.86183 0.46526 0.164166 -0.900498 -0.402683
1.2382 0.874211 0.430491 0.240078 -0.970366 0.0274234
1.21373 0.869726 0.512582 0.201931 -0.979357 -0.00917006
1.0831 0.860642 0.41931 -0.108666 -0.473881 0.873859
0.901251 0.920123 0.315475 0.236357 -0.309858 0.920936
1.2028 0.859617 0.532061 -0.721792 -0.683775 0.107087
1.56791 0.853411 0.807777 -0.224471 -0.901262 -0.370593
1.85459 0.868883 1.09928 -0.519152 -0.602659 -0.606039
1.75975 0.879556 0.913984 0.404994 -0.899277 0.165168
1.25008 0.866267 0.641426 0.865856 -0.403378 -0.295938
1.94153 0.728918 1.14574 0.571874 -0.171818 -0.802146
1.72363 0.864161 0.90445 0.0942711 0.104201 -0.990078
1.41681 0.865961 0.78283 -0.376606 -0.845757 0.377971
1.31309 0.863841 0.703919 0.315256 -0.94473 0.0899965
0.821912 0.887886 0.323718 0.575339 -0.525336 0.626903
1.64542 0.879 0.979182 -0.17574 -0.983831 -0.0345278
1.77601 0.860989 1.08651 -0.416744 -0.576369 0.702939
1.52583 0.863641 0.7963 -0.522458 -0.622806 0.582367
1.88481 0.881267 1.19775 -0.334011 -0.91136 -0.240539
1.03988 0.880954 0.523766 -0.205308 -0.97812 0.033606
1.80457 0.895208 1.15299 0.109736 -0.900508 0.420765
1.38591 0.897705 0.8292 0.198302 -0.979858 -0.023546
0.902442 0.91617 0.441036 -0.981321 -0.170124 -0.0898107
1.90357 0.878989 1.25175 0.329751 -0.943679 0.027105
2.00687 0.858175 1.33157 0.384158 -0.888695 -0.250287
1.90409 0.888095 1.30784 0.15813 -0.985264 0.0651905
1.30263 0.909176 0.737753 -0.716474 0.376783 -0.587111
1.45089 0.84345 0.274496 -0.900677 0.401019 -0.167227
1.69521 0.831059 0.435615 0.0285683 0.102283 -0.994345
1.59152 0.85527 0.0120021 -0.88848 0.271979 0.369635
1.57451 0.813091 -0.0398197 0.0532929 -0.91769 0.393706
1.47763 0.837266 -0.0697629 -0.366031 -0.930386 0.020072
1.47995 0.859465 0.027846 0.712084 -0.58887 0.382321
1.30848 0.908514 -0.126344 0.499096 -0.858434 0.118296
1.45071 0.852166 0.0549969 0.586531 -0.618464 0.522957
1.32136 0.855855 0.0476909 0.118687 -0.985932 0.117694
1.46544 0.852814 0.12599 0.221898 -0.972765 0.0670016
1.45282 0.836855 0.181209 -0.191802 -0.412947 0.89033
1.4658 0.810714 0.190375 -0.081742 -0.673159 -0.734967
1.4305 0.836149 0.184584 -0.235016 -0.899256 -0.368925
1.4991 0.850046 0.178273 -0.118391 -0.789384 -0.602376
1.05782 0.89545 0.0423479 0.733996 -0.634242 -0.242873
1.05869 0.867903 0.0780468 0.57589 -0.398404 -0.713881
1.29068 0.852075 0.217914 0.349338 -0.91642 0.195286
1.20934 0.86113 0.234964 0.410877 -0.789977 0.455101
1.04765 0.881058 0.140903 0.496555 -0.447872 0.743535
1.23847 0.880379 0.304448 0.0827456 -0.214805 -0.973145
1.14415 0.864385 0.249179 0.218947 -0.235875 -0.946797
1.41702 0.860413 0.367713 -0.950869 0.291665 0.103822
1.10593 0.862898 0.313338 -0.182316 -0.983166 0.012037
1.02404 0.88631 0.263742 -0.486938 -0.870658 0.0696067
1.14126 0.866816 0.375685 0.488807 -0.134028 -0.862035
0.922959 0.875488 0.219397 0.982632 -0.0433205 -0.180439
1.18436 0.877764 0.339951 -0.959693 -0.277939 0.0417178
1.68723 0.805163 0.75164 -0.0514656 -0.950902 -0.305182
1.09973 0.844306 0.332413 -0.437888 -0.895513 -0.0794385
1.091 0.858895 0.448795 -0.353202 -0.873876 0.334051
1.06759 0.859094 0.434298 0.17687 -0.864318 0.47082
1.87571 0.826735 1.08957 -0.720424 -0.219094 -0.658018
1.59788 0.844837 0.804819 0.106877 -0.96755 0.228963
1.2129 0.850699 0.655457 -0.570893 -0.59378 -0.567015
1.19731 0.861855 0.647875 -0.00449084 -0.906368 -0.422464
1.7642 0.852886 1.01102 -0.233971 -0.873119 -0.427692
1.33946 0.862215 0.680794 0.427844 -0.903677 0.0177974
1.07544 0.823404 0.294441 0.115219 -0.992931 -0.0285036
1.67852 0.85212 1.10792 -0.11583 -0.309115 -0.943945
1.55081 0.848184 0.664561 0.660586 -0.68428 -0.308847
1.75252 0.833828 1.04841 -0.224303 -0.97341 0.0464787
1.61465 0.836542 0.940018 -0.644708 -0.627028 0.43725
1.31729 0.868767 0.710932 0.185147 -0.70237 0.687312
1.82212 0.874781 1.25532 -0.407213 0.0403617 -0.912441
1.90364 0.891355 1.33059 0.312931 -0.937348 0.153146
1.13877 0.857779 0.562297 0.514459 -0.847735 0.12914
1.72984 0.918603 1.20104 -0.976657 0.140027 0.162892
0.907205 0.857469 0.45953 -0.973038 -0.113741 0.200647
1.4899 0.852335 0.865909 -0.160037 -0.986899 -0.0204769
1.6409 0.76054 0.96645 0.539954 -0.739041 -0.402825
0.888991 0.880313 0.380314 0.777367 -0.449463 0.440096
2.01939 0.920012 1.49342 0.041985 -0.93879 -0.341922
1.36269 0.882874 0.79529 0.452692 -0.785529 0.421916
1.83562 0.86539 1.33474 -0.0235426 -0.998345 -0.0524647
1.72409 0.897808 1.23185 0.713127 -0.414943 -0.565042
0.909489 0.86504 0.496628 0.405221 -0.9104 0.0834727
2.05185 0.876711 1.53449 0.32592 -0.824539 -0.462506
1.98879 0.93045 1.48941 -0.645843 0.54237 -0.537329
0.917765 0.871517 0.515089 0.641667 -0.758268 0.115292
1.56043 0.880865 1.11393 0.144539 -0.936457 0.319621
1.81093 0.893899 1.3507 -0.271961 -0.921986 -0.275643
1.96531 0.838792 1.33973 -0.207904 -0.96038 0.185597
1.70828 0.837249 1.10271 -0.0838025 -0.995783 -0.0373204
1.96223 0.859008 1.51112 0.0247148 -0.994076 -0.10584
2.06195 0.870239 1.59515 -0.885128 0.448645 0.123554
0.928429 0.874085 0.556332 0.543289 -0.833096 -0.103866
1.94704 0.864838 1.50729 0.112149 -0.990038 -0.0851276
0.987192 0.865767 0.621476 -0.634693 -0.652856 -0.413453
0.901005 0.870474 0.541475 -0.664408 -0.741103 -0.096581
0.982249 0.873575 0.641846 -0.0736613 -0.855662 0.512267
0.902002 0.848232 0.550636 0.863849 -0.357214 -0.355193
1.60024 0.848592 1.11252 -0.23983 -0.889721 0.388429
1.19053 0.843207 0.588732 -0.943888 -0.0733975 0.322008
1.62047 0.873686 0.00407174 -0.0393707 -0.267685 0.962702
1.42577 0.872501 -0.0419774 -0.528027 -0.827284 -0.191803
1.76779 0.911263 0.10548 0.474785 -0.522481 0.708233
1.70673 0.829318 0.147273 -0.194436 -0.965538 -0.173005
1.5119 0.858775 0.0698565 0.770196 -0.608936 -0.189724
1.44672 0.871446 0.0592277 0.586531 -0.618464 0.522957
1.55714 0.835332 0.0646807 0.174999 -0.976602 0.124999
1.57773 0.845486 0.162055 -0.182875 -0.952469 -0.243637
1.2851 0.847556 0.0298014 0.787774 -0.51089 -0.344097
1.30859 0.847834 -0.0252715 0.439229 -0.530844 -0.724764
1.18435 0.884523 -0.00788006 -0.981156 0.103885 0.162911
1.623 0.828614 0.176137 -0.0404327 -0.146914 0.988323
1.16321 0.863608 0.0243878 -0.174334 -0.132446 -0.975739
1.2457 0.883318 0.0727419 -0.146801 -0.987966 -0.0487047
1.33443 0.860975 0.135141 -0.346494 0.0587463 -0.936211
1.39057 0.83474 0.180457 -0.657974 0.259593 -0.706882
1.77747 0.830097 0.313807 0.678213 -0.734158 -0.032235
1.49129 0.840125 0.266199 -0.113065 -0.253293 -0.96076
1.78788 0.834219 0.443014 0.250987 -0.890833 -0.37871
1.49212 0.835322 0.27817 0.123921 -0.976709 -0.175168
1.35575 0.829118 0.214618 -0.218445 -0.902414 -0.37139
1.62322 0.85757 0.384731 0.665881 -0.666207 0.335813
1.07977 0.813265 0.0633257 -0.867667 -0.480353 0.128123
1.12109 0.844099 0.0970954 -0.376168 0.0439729 0.925507
1.08282 0.816595 0.0788503 -0.426275 -0.166791 0.889084
1.65078 0.852441 0.428788 0.309598 -0.106145 -0.944925
1.83821 0.843321 0.564497 -0.873925 0.419347 0.24577
2.03253 1.08088 0.689397 0.668609 -0.720412 -0.184304
1.30407 0.842451 0.283266 -0.0327853 -0.997247 0.0665078
1.63796 0.852532 0.52072 -0.223755 -0.541958 -0.810071
1.79107 0.84123 0.652129 0.302281 -0.611575 -0.731165
1.82934 0.855806 0.69173 0.362799 -0.639855 -0.677468
1.74388 0.845406 0.649974 -0.405871 -0.587301 -0.700247
1.73632 0.858281 0.643198 0.555325 -0.825438 0.101327
1.29516 0.807057 0.344351 -0.175788 -0.984424 0.00281063
1.01297 0.865967 0.164259 -0.657089 0.00226954 -0.753809
1.82536 0.829679 0.730669 -0.46899 -0.87301 -0.133801
1.24191 0.8473 0.32953 -0.0348758 -0.93857 -0.343322
1.38723 0.843732 0.440368 0.504476 -0.704555 0.499105
1.80557 0.806826 0.785864 -0.0677543 -0.87747 0.474822
1.73966 0.844606 0.755401 0.384332 -0.299123 -0.873392
1.88 0.857154 0.743521 -0.886749 0.380841 -0.261984
1.31821 0.859474 0.455 0.323298 -0.552533 -0.768236
1.09739 0.864072 0.304314 -0.062914 -0.996959 -0.045988
1.3693 1.48893 0.448959 -0.355191 0.12972 -0.925749
1.19069 0.867194 0.380249 -0.0498153 -0.939057 0.340133
1.57831 0.873242 0.683803 0.64859 -0.323135 -0.689141
1.36633 0.80994 0.522088 -0.12869 -0.654429 0.745092
1.68098 0.856611 0.789811 0.613877 -0.782984 -0.100461
1.10715 0.851527 0.360927 0.273545 -0.960092 0.0582757
1.04153 0.860266 0.336691 -0.371538 0.188237 -0.909135
0.954583 0.876601 0.273315 -0.0325909 -0.999158 -0.0249259
1.04676 0.833189 0.34065 -0.00447016 -0.714187 0.699941
1.13972 0.847403 0.431244 0.502088 -0.864448 -0.0252258
1.23476 0.869267 0.529164 -0.414507 -0.879297 0.234566
1.06209 0.889221 0.396338 0.778668 -0.110137 -0.617694
1.25369 0.856961 0.546644 -0.129054 -0.98907 0.0713109
1.68972 0.854263 0.814065 0.630727 -0.65202 -0.420777
1.07058 0.836602 0.41894 0.594823 -0.7655 0.245345
1.41421 0.860203 0.705622 0.333744 -0.849468 -0.40868
1.29974 0.877706 0.61743 0.133277 -0.85385 0.503168
1.05417 0.857044 0.414706 0.594823 -0.7655 0.245345
0.893368 0.849552 0.279479 -0.140209 -0.99003 0.0134803
1.70399 0.836168 0.938276 -0.0220219 -0.993909 -0.107981
1.46025 0.875515 0.765295 0.0132536 0.567605 -0.823195
1.31752 0.855883 0.656873 0.645412 -0.733199 -0.214155
1.06154 0.868971 0.454232 0.27501 -0.910141 0.309859
1.11088 0.81918 0.407361 0.114402 -0.99089 -0.0710559
1.90686 0.852851 1.17902 0.514262 -0.854875 0.0687246
2.01123 0.867441 1.30409 -0.827952 0.444647 0.341738
1.15267 0.842724 0.5594 -0.735754 -0.644756 0.207259
1.37114 0.898114 0.771174 0.172775 -0.884503 0.433362
1.25359 0.854661 0.662467 0.822497 -0.320297 -0.470009
1.02915 0.849478 0.471573 0.700024 -0.547203 0.458841
1.53388 0.825025 0.901101 -0.458869 -0.818436 0.345836
0.902925 0.87056 0.380782 0.740953 -0.478554 0.471143
1.26924 0.848988 0.610547 -0.145474 -0.928115 0.342694
1.82545 0.811819 1.18886 -0.346865 -0.936837 -0.0449528
1.19741 0.838018 0.641231 -0.799724 -0.522047 0.296492
1.25439 0.837339 0.701744 0.193595 -0.967418 -0.163165
1.48747 0.860499 0.921769 0.134922 -0.982846 0.125739
1.25735 0.875264 0.732636 0.197467 -0.0415485 -0.979429
2.01334 0.88039 1.43597 0.287011 -0.881726 0.374412
0.875049 0.848828 0.398268 0.889638 -0.432682 -0.146048
1.96947 0.881373 1.25695 -0.37343 -0.917479 -0.13705
1.80657 0.901957 1.27586 -0.394773 -0.334047 -0.855901
1.29001 0.867437 0.711837 0.516376 -0.817879 -0.253829
1.80124 0.869551 1.15471 -0.0556085 -0.963383 0.262301
1.58361 0.850208 1.09161 -0.326061 -0.784314 0.527764
1.46769 0.865843 0.902097 -0.00206313 -0.978645 0.205546
0.996637 0.864836 0.591551 -0.680025 -0.663504 0.311975
1.00348 0.833173 0.591518 -0.690507 -0.670857 0.270464
1.87363 0.843529 1.44522 -0.288533 -0.911786 0.292224
1.03649 0.849605 0.644082 -0.24041 -0.0597675 -0.96883
2.09041 0.9084 1.69667 0.479978 0.463253 -0.744995
1.76458 0.867736 1.35558 0.349786 -0.93521 -0.0550715
1.45121 0.859899 0.94031 0.253546 -0.909212 0.330224
1.693 0.856313 0.91698 -0.515369 -0.733928 -0.44243
1.54016 0.77604 0.791966 0.0197157 -0.0296395 -0.999366
1.92366 0.857408 1.54457 0.176763 -0.983497 -0.0385814
1.93858 0.858335 1.57241 0.61804 -0.786034 0.0133142
1.69608 0.837831 1.19533 0.559107 -0.806119 0.193832
0.927537 0.871629 0.585892 0.919331 -0.384335 -0.0843655
1.12886 0.860144 0.678657 -0.301803 -0.951855 -0.0537229
1.83262 0.837955 1.36116 0.0613806 -0.99655 -0.0558604
1.93712 0.869064 1.61406 -0.951029 -0.306718 0.0383097
1.27279 0.802696 0.812649 -0.305644 -0.520625 0.797202
1.08989 0.878609 0.674484 0.422108 -0.897166 -0.130066
1.86895 0.858042 1.55716 -0.43933 0.234649 -0.867139
0.948762 0.870883 0.630255 -0.21237 -0.772781 -0.598088
1.62297 0.837568 1.31219 0.395305 -0.906122 -0.150588
1.12591 0.833356 0.710829 0.610265 -0.792165 0.0072017
1.95213 0.853421 1.67313 0.355666 -0.91594 0.185889
1.64376 0.879957 1.38821 0.514787 -0.195548 -0.834719
1.74785 0.908811 1.09797 -0.171598 0.104636 -0.979594
2.08492 0.928565 1.71051 0.309497 0.294725 -0.904073
0.996233 0.861358 0.71217 -0.115789 -0.992193 0.046329
1.47017 0.856728 0.848602 -0.35319 -0.890188 -0.287788
0.93634 0.864559 0.678217 0.521336 -0.852911 0.0274049
0.925389 0.860985 0.575543 0.919331 -0.384335 -0.0843655
1.82458 0.810594 1.58632 -0.455589 -0.752908 -0.47494
1.61377 0.877555 1.39645 -0.393489 -0.89487 0.21065
0.911234 0.862559 0.589879 0.917083 -0.388106 -0.0912839
0.838199 0.853435 0.510347 0.32612 -0.937608 0.120568
1.70767 0.897924 0.0369136 0.669086 -0.688311 -0.280271
1.28844 0.830998 -0.109421 -0.573387 -0.427121 -0.699139
1.45746 0.837784 -0.0347925 0.681639 -0.730777 -0.036508
1.24501 0.835524 -0.0855713 -0.468717 -0.854102 -0.225421
1.69659 0.85221 0.127958 -0.693231 -0.598376 -0.401717
1.3264 0.819584 0.00508312 0.08641 -0.978399 0.187801
1.77687 0.840523 0.234181 0.583946 -0.76921 -0.259469
1.49156 0.84863 0.0964579 0.0509061 -0.993452 -0.102278
1.17776 0.80766 -0.00869314 -0.959632 0.182155 0.214302
1.77309 0.853031 0.199314 0.588784 -0.737782 -0.330169
1.19773 0.841529 0.000521247 -0.869776 0.300639 0.391287
1.59735 0.868772 0.139646 0.0721385 -0.309688 0.948098
1.15381 0.835618 0.0104764 0.0827673 -0.238369 0.967641
