ply
format ascii 1.0
element vertex 896
property float x
property float y
property float z
property float nx
property float ny
property float nz
end_header
9.29678 15.2944 -2.45484 0.53691 0.230798 -0.811455
7.92088 15.2165 -3.37263 -0.480797 0.796841 -0.365895
9.47456 15.6877 -2.51067 -0.240253 0.0795968 -0.967441
5.52435 14.9812 -4.68498 -0.260858 0.234395 0.936489
9.13597 15.435 -2.67309 -0.200891 -0.793497 -0.574461
9.2556 15.7551 -2.69779 0.429257 0.893927 -0.128968
9.21013 15.7601 -2.7203 0.371619 -0.847682 -0.378595
6.77257 15.0501 -3.79736 0.578013 -0.521564 -0.627592
5.96132 15.0574 -4.26736 0.517459 0.145729 -0.843208
8.26244 15.8435 -3.77221 0.696176 0.142557 -0.703574
9.22667 15.6001 -2.60682 -0.370982 -0.805263 -0.46252
7.74602 15.3737 -3.52611 0.809902 -0.0504914 -0.584388
9.31105 15.6345 -1.9966 -0.81931 -0.326308 -0.471438
9.20996 15.6729 -1.81306 0.274552 0.293582 -0.915659
9.19736 15.7046 -1.7616 -0.247822 0.869851 -0.426548
9.17456 15.7009 -1.77317 -0.412996 0.835815 -0.36173
9.20484 15.6194 -2.63822 -0.332397 -0.815748 -0.473358
8.4382 16.1389 -3.20741 0.538693 0.219933 -0.813289
9.33302 15.7922 -2.67034 0.00766078 -0.0310469 -0.999489
9.15667 15.7118 -2.70266 0.42205 -0.316816 -0.849412
9.09579 15.7137 -2.7395 0.414144 -0.526039 -0.742811
9.10759 15.3985 -2.97674 0.230378 0.940426 -0.25005
9.11292 15.4769 -2.82472 0.517014 0.850387 -0.0976633
8.20858 16.1921 -3.40577 0.913511 0.330764 0.236839
8.1917 16.1594 -3.43957 0.913511 0.330764 0.236839
8.1531 16.1444 -3.44708 0.772724 0.569129 -0.281052
8.01209 16.4173 -3.47616 0.695574 0.695178 -0.181394
9.19605 15.5004 -2.78038 0.26217 0.812623 -0.520491
8.22864 16.21 -3.31513 0.764778 -0.628806 -0.140422
9.18663 15.4221 -2.87986 0.709005 0.705081 0.0131241
7.99615 15.306 -3.37013 -0.513322 0.787642 -0.340763
9.33819 15.6236 -2.56077 0.233056 0.465564 -0.853777
7.93442 15.2496 -3.4269 0.370616 -0.0844054 -0.924943
9.04609 15.4599 -2.64971 -0.43733 0.76504 0.472712
7.9414 15.3741 -3.36273 0.486343 0.851844 -0.194504
9.20358 15.504 -2.61781 0.377623 -0.174476 -0.909373
7.25589 15.1626 -3.67923 -0.100365 0.956386 -0.274322
9.21537 15.2793 -2.49223 0.407378 0.705336 -0.580124
9.19447 15.2814 -2.4894 0.401744 0.209557 -0.891453
8.02431 15.2346 -3.18471 0.48149 -0.47915 -0.733882
8.07658 15.0773 -3.11108 0.709975 -0.102485 0.69673
7.78526 15.1992 -3.37208 0.657048 0.257962 0.708338
9.46813 15.3051 -2.35416 -0.344827 -0.631065 -0.694875
9.56486 15.2273 -2.29012 -0.586269 0.63961 -0.497179
9.56409 15.2311 -2.28992 -0.203415 0.972089 -0.116899
9.6837 15.3143 -2.23141 -0.413159 -0.658636 -0.628886
9.50501 15.2223 -2.3248 -0.122581 -0.535733 -0.835442
9.51871 15.2527 -2.31554 0.16205 0.917092 0.364257
9.50157 15.2939 -2.33145 -0.419928 -0.729115 -0.540419
9.56076 15.2258 -2.27194 -0.175721 0.777211 -0.604207
9.69362 15.3118 -2.21514 -0.413159 -0.658636 -0.628886
9.50456 15.156 -2.29741 0.419301 -0.24634 -0.873787
7.9166 15.2921 -3.28617 0.869508 -0.474692 0.136471
9.13842 15.2898 -2.53311 0.416266 -0.0605186 -0.907227
6.31116 15.0321 -4.2016 0.426982 -0.561261 -0.708994
7.81161 15.4316 -3.37892 0.74125 0.151912 -0.653813
7.87806 15.1927 -3.23189 0.541641 -0.414424 -0.731353
7.87088 15.482 -3.40151 0.434834 -0.100048 -0.894936
7.93575 15.1512 -3.17437 0.57563 -0.155797 -0.802731
6.85726 15.1112 -3.78116 0.454787 -0.686585 -0.567248
5.57888 15.091 -4.5483 0.322368 0.740468 -0.589734
9.43841 15.164 -2.50228 -0.472884 -0.576008 -0.66678
9.37654 15.2359 -2.41637 0.281935 -0.0547806 -0.957868
9.1155 15.4593 -2.65274 -0.910745 -0.176196 -0.373494
5.8256 14.9054 -4.61089 0.438276 0.770179 -0.463399
5.41641 14.995 -4.80405 -0.260858 0.234395 0.936489
9.42219 15.1789 -2.4871 0.145406 0.910551 -0.386981
8.50249 15.203 -2.88093 0.528701 -0.335958 -0.779492
8.00386 15.1317 -3.13382 0.63293 -0.174904 -0.754193
5.61817 14.9816 -4.74814 -0.260858 0.234395 0.936489
7.83502 15.088 -3.24056 0.652731 -0.323094 -0.685239
9.54072 15.247 -2.30335 -0.483758 -0.844428 -0.230043
9.33793 15.7914 -2.65518 0.00766078 -0.0310469 -0.999489
7.22007 15.2185 -3.60596 0.266115 -0.336205 0.90341
8.32689 15.844 -3.89385 0.99458 -0.100367 -0.027141
9.09496 15.3979 -2.73118 -0.167887 0.809829 -0.562131
7.06755 15.2071 -3.7433 -0.0161774 0.974984 -0.221687
9.48059 15.1767 -2.43982 -0.433159 -0.567638 -0.700115
7.37822 15.5983 -3.68728 0.479482 0.417419 -0.771919
8.17659 15.4829 -3.15394 0.318966 -0.326608 -0.889712
9.51091 15.0646 -2.26096 0.841051 0.456167 -0.290764
9.17414 15.6821 -1.85244 -0.298102 0.939351 -0.169574
9.46231 15.1227 -2.3112 0.369822 -0.350132 -0.860604
9.4574 15.0897 -2.30901 0.470307 -0.241253 -0.848887
9.45562 15.124 -2.31672 0.369822 -0.350132 -0.860604
9.48976 15.1085 -2.29188 0.369822 -0.350132 -0.860604
9.48205 15.1264 -2.31065 0.41867 -0.252362 -0.872369
9.5076 15.121 -2.30106 0.41867 -0.252362 -0.872369
9.04683 15.656 -1.85635 0.119449 -0.759385 -0.639583
9.3918 15.6452 -2.53155 0.293543 0.561996 -0.7733
8.4438 16.1056 -3.20299 0.437126 0.186826 -0.879782
9.49056 15.4039 -2.93563 -0.154179 0.858504 -0.489081
9.36217 15.6965 -2.05045 -0.657654 0.514178 -0.550556
9.36817 15.6602 -2.07878 -0.400626 0.194896 -0.895273
9.10764 15.4745 -2.78134 -0.164635 0.946309 0.2782
9.25017 15.766 -2.67159 -0.27828 -0.889069 -0.363478
9.48558 15.0635 -2.58643 0.42398 0.794805 -0.434196
7.99679 15.3752 -3.25373 0.286538 0.82828 -0.481506
8.2121 15.2817 -3.12845 0.374332 -0.326418 -0.867944
8.18835 15.4763 -3.16641 0.318966 -0.326608 -0.889712
7.58001 15.5661 -3.53811 0.392409 0.277781 -0.876842
7.67461 15.5849 -3.56782 0.31995 0.321218 -0.89132
6.45697 16.8544 -5.00699 -0.519162 0.0650057 0.8522
9.38461 15.7689 -2.59632 -0.342504 0.879673 -0.32995
5.903 14.2618 -4.28524 0.409512 -0.0881697 -0.908034
7.77714 15.2335 -3.37787 -0.172535 0.940675 0.292167
8.01044 14.9552 -3.43564 0.662178 -0.230842 -0.712904
9.63589 15.0237 -2.56639 0.235182 0.966767 -0.100258
6.31762 15.1395 -4.23266 0.393495 -0.29314 -0.871338
9.22409 15.2931 -2.48166 0.368027 0.730874 -0.574786
8.41185 15.4676 -3.07364 0.349258 -0.459107 -0.816847
6.48705 17.1063 -5.07244 0.672564 0.267844 -0.689867
9.08826 15.5093 -2.83714 0.371462 0.928172 0.0226381
6.21667 17.1674 -5.16336 -0.553729 -0.0956899 0.827181
7.38377 15.1336 -3.82783 -0.248218 0.963106 -0.103992
7.96286 15.3174 -3.43635 0.370616 -0.0844054 -0.924943
9.03244 15.4105 -2.79539 -0.7208 0.684525 0.108963
8.41416 15.2145 -2.92544 0.46625 -0.41508 -0.781229
9.14608 15.5213 -2.65491 0.590576 -0.387616 -0.707795
9.34937 15.2488 -2.41749 0.280425 -0.149132 -0.94822
9.1756 15.5249 -2.75856 -0.0812023 0.995403 -0.0507839
9.5062 15.2512 -2.33826 -0.771303 -0.481727 -0.41597
9.54428 15.2517 -2.30182 -0.483758 -0.844428 -0.230043
7.09931 15.1366 -3.97471 0.13706 0.860952 0.489873
6.65479 14.4147 -3.93176 0.26986 0.812448 -0.516821
5.82654 14.0794 -4.07024 0.762875 -0.310348 0.567192
9.10039 15.4062 -3.08999 0.291939 0.940968 -0.171323
5.7473 14.0345 -4.1411 0.533869 -0.66425 0.523217
9.37011 15.1346 -2.37978 0.176682 -0.148341 -0.973025
9.40975 15.0504 -2.61747 0.0421987 0.918062 -0.394185
9.14421 15.2714 -2.53517 0.416266 -0.0605186 -0.907227
9.3173 15.2935 -2.43865 0.489968 0.113405 -0.864332
5.73935 13.8652 -4.2136 0.588692 0.310569 0.746316
9.10434 15.2737 -2.55811 0.416266 -0.0605186 -0.907227
9.58023 15.0468 -2.46974 0.488759 0.868135 0.0863497
9.31279 15.3044 -2.43243 0.489968 0.113405 -0.864332
9.602 14.9996 -2.24224 0.154488 0.973881 0.166398
9.59626 15.0096 -2.23944 -0.884315 0.257799 -0.389265
9.58801 15.0219 -2.1974 0.600561 0.222889 -0.767885
9.63645 14.9989 -2.282 0.352197 0.920493 0.169261
9.55537 15.0796 -2.23406 0.559748 -0.0085289 -0.828619
9.54591 15.0119 -2.26041 -0.226812 0.791128 0.568042
9.53379 15.0217 -2.26887 0.0061212 0.841991 0.539456
9.55058 15.0301 -2.22615 0.553394 0.182367 -0.81271
9.46171 15.1111 -2.31528 0.369822 -0.350132 -0.860604
9.49248 15.0955 -2.28937 0.411065 -0.424931 -0.806511
9.46488 15.1112 -2.30823 0.369822 -0.350132 -0.860604
9.51213 15.0266 -2.22862 0.658593 0.472435 -0.585714
9.11541 15.4942 -2.78837 0.0433488 0.944558 0.32547
7.85517 15.622 -3.42154 0.431696 -0.368317 -0.823396
8.39919 15.5226 -3.08493 0.349258 -0.459107 -0.816847
9.32582 15.5319 -2.69387 -0.219062 -0.806371 -0.549343
7.55537 15.4375 -3.59398 0.449826 0.485071 -0.749909
9.13597 15.5055 -2.7908 -0.339255 0.911447 -0.232746
9.20511 15.6138 -2.63428 -0.332397 -0.815748 -0.473358
9.18696 15.6733 -1.81993 0.142545 0.845961 -0.513839
9.29156 15.6624 -1.98859 -0.489888 0.437307 -0.75417
9.25645 15.6692 -2.14212 0.249041 0.964974 0.0824896
8.93885 15.6595 -1.90068 -0.0349813 -0.95878 -0.281989
9.11982 15.625 -1.81173 -0.40906 0.824634 -0.390702
9.29449 15.7166 -1.97933 -0.296491 0.796095 -0.527566
9.48883 15.0483 -2.27994 0.276623 0.168896 -0.94602
9.26745 15.684 -2.06483 -0.374322 -0.926369 -0.0415081
4.80508 16.0204 -5.44342 0.35444 -0.557242 -0.750902
9.09729 15.6071 -1.81949 0.107781 -0.810858 -0.575233
5.37269 15.9616 -5.17456 -0.252811 0.541224 0.801975
8.25542 15.5385 -3.22018 0.448983 -0.664874 -0.596956
9.19667 15.3558 -3.09612 0.259362 0.945465 -0.197048
7.72059 15.626 -3.50931 0.59205 -0.241169 -0.768969
9.2135 15.4093 -2.90965 -0.692381 -0.668663 -0.271107
9.18826 15.5133 -2.76379 -0.038448 0.998322 0.0432938
9.19768 15.4165 -2.89754 -0.692381 -0.668663 -0.271107
9.34998 15.5025 -2.68311 -0.296054 -0.851202 -0.433368
7.7951 15.5868 -3.4498 0.524801 -0.137579 -0.840033
7.98358 15.5702 -3.42292 0.434834 -0.100048 -0.894936
9.06802 15.3932 -2.83289 -0.428558 0.708937 0.56013
9.03742 15.5397 -2.72743 0.720421 0.648261 -0.246477
8.35604 15.5161 -3.14748 0.349258 -0.459107 -0.816847
9.40663 15.5004 -2.72531 -0.422123 -0.802315 -0.422022
4.29983 15.9768 -5.79802 0.474664 -0.698016 -0.53616
9.11615 15.4998 -2.67301 -0.716918 0.476406 -0.508985
5.55054 16.1196 -5.19473 -0.307384 0.66655 0.679137
8.29469 15.7571 -3.71305 0.683377 0.720078 0.120346
9.09555 15.3929 -2.79584 -0.291213 0.951833 -0.0959632
4.76684 16.0772 -5.60737 0.281412 -0.829518 -0.482398
8.26111 15.8427 -3.92189 0.99458 -0.100367 -0.0271411
7.30863 15.9232 -4.45226 0.482362 -0.467405 -0.740851
9.76279 14.9861 -2.51081 0.329786 0.933166 0.142979
5.05839 17.5476 -6.50615 0.762842 -0.169274 -0.624034
8.00813 16.3396 -3.64105 0.630309 0.775922 -0.0255942
5.96824 14.1712 -4.23354 -0.0580945 -0.134936 0.98915
9.24287 15.5908 -2.59852 -0.477641 -0.819149 -0.317574
7.49756 15.1718 -3.81873 0.548738 -0.709117 0.442763
5.67145 14.0099 -4.31194 0.485669 0.422259 0.765391
7.26476 15.144 -3.95163 -0.0883649 0.985914 -0.142005
9.18498 15.6217 -2.65313 -0.0097334 -0.470504 -0.882344
8.23449 15.8743 -3.77279 0.00564418 -0.398637 0.917091
7.97652 15.5186 -3.31176 0.512929 -0.326822 -0.793783
9.18916 15.5459 -2.6425 0.288922 -0.0379095 -0.956602
7.50764 14.3809 -3.1401 0.565097 -0.546804 -0.617795
7.55266 14.4415 -3.13025 0.546895 -0.551657 -0.629746
9.54562 15.2152 -2.30246 -0.810847 -0.57685 0.0988436
6.69332 14.1637 -3.50974 -0.480298 0.674371 0.560836
5.82557 13.9073 -3.97528 0.869042 -0.448368 0.20912
5.64997 13.8306 -4.00669 0.523538 -0.837307 0.157559
5.34537 13.7955 -3.96858 -0.267665 0.909048 0.319355
5.69047 13.8888 -3.96836 0.869042 -0.448368 0.20912
6.20376 14.1634 -4.01384 0.875438 0.483309 -0.0046822
5.67888 14.0068 -4.06405 0.869042 -0.448368 0.20912
5.70447 13.9852 -4.11833 0.905696 -0.409708 0.108875
6.4758 14.4626 -3.91752 -0.373654 0.835611 0.402661
9.46819 15.0905 -2.2999 0.369822 -0.350132 -0.860604
9.08471 15.6625 -1.83709 -0.327268 0.927359 -0.181385
7.24329 15.0893 -3.93402 -0.0627596 0.988115 -0.140322
6.49435 15.1127 -4.26118 -0.339681 0.666288 0.663835
9.5974 15.0131 -2.23872 -0.87171 0.327642 -0.364379
9.64317 15.0021 -2.1705 0.640731 0.421684 -0.641597
9.45761 14.9307 -2.25602 -0.290851 0.868886 0.400553
9.41565 14.9383 -2.27557 0.539656 0.829141 0.145932
9.50906 14.9335 -2.2521 -0.716271 0.684165 -0.137385
9.65092 14.9863 -2.19417 0.623659 0.630615 -0.461925
9.63874 15.0083 -2.19001 0.672835 0.583942 -0.454207
9.10306 15.4954 -2.78183 -0.0666438 0.935336 0.347425
9.11717 15.4528 -2.69077 -0.559264 0.828965 0.00637496
9.15487 15.4568 -2.86344 -0.854478 -0.497818 -0.148474
9.08133 15.4102 -2.99604 0.249297 0.929347 -0.272334
9.11587 15.4622 -2.75839 0.744312 0.662919 0.0808526
9.23392 15.3997 -2.91596 0.197297 0.522642 -0.829409
5.93492 15.9863 -4.57633 0.412796 -0.685121 -0.600173
9.15629 15.4405 -2.80444 -0.408312 -0.667218 -0.622978
9.45337 15.3029 -2.35828 -0.344827 -0.631065 -0.694875
9.29574 15.7358 -1.94037 -0.0726175 0.992522 -0.0981153
9.00688 15.4137 -2.84497 0.713942 -0.426576 -0.555265
9.1593 15.3018 -2.52989 0.513195 -0.202696 -0.833993
6.11046 14.2256 -4.22385 0.125512 0.404898 -0.905707
7.75462 15.6507 -3.49907 0.334619 -0.41406 -0.846513
5.94272 16.1143 -4.72222 0.285626 -0.86459 -0.413403
8.33744 15.5715 -3.19782 0.349258 -0.459107 -0.816847
8.28284 15.7531 -3.77911 -0.493914 0.00174463 0.869509
9.0916 15.4418 -2.65304 -0.295547 -0.564368 -0.770805
8.22601 15.8076 -3.9428 0.88568 -0.464275 0.00443031
9.11466 15.4757 -2.68206 -0.78709 0.43428 -0.438052
8.20523 15.747 -3.91706 0.88568 -0.464275 0.00443031
7.14136 14.6657 -3.95225 0.892195 -0.198082 0.405897
4.84131 13.5683 -4.67398 -0.451949 0.885011 0.111788
8.2412 15.8744 -3.76631 0.00564418 -0.398637 0.917091
9.46809 15.2863 -2.34865 -0.344827 -0.631065 -0.694875
9.06671 15.4077 -2.77622 -0.0907831 0.789413 -0.607113
8.02151 14.677 -2.97599 0.445067 -0.343437 -0.827022
6.17228 14.0436 -4.13421 0.741695 -0.512882 -0.43225
7.63681 14.5374 -3.15357 0.492234 -0.372855 -0.786566
7.68225 14.6066 -3.154 0.48092 -0.320883 -0.815935
6.05611 14.0536 -4.22369 -0.189915 0.261142 0.946434
6.104 14.2057 -3.83888 -0.11278 0.464124 -0.878561
6.52594 14.294 -3.78206 0.593972 -0.603147 -0.532364
6.63233 14.413 -3.80755 0.571109 -0.71566 -0.402076
9.02177 15.4322 -3.19922 0.124086 0.991121 -0.04776
9.1494 15.6665 -1.84554 -0.537251 0.800396 -0.265948
7.48001 14.4722 -3.24287 0.581579 -0.340848 -0.73864
6.7048 14.4368 -3.83228 0.626694 -0.765225 -0.147259
6.2345 14.1783 -4.13739 0.79877 -0.0763987 -0.596767
7.86632 14.6453 -3.06109 0.491659 -0.358721 -0.793467
6.31669 14.2866 -3.76447 -0.100023 0.12127 0.987567
6.11278 14.1433 -4.29058 -0.123029 0.218187 0.968121
5.97401 14.107 -3.86701 0.105621 0.25867 -0.960174
9.17166 15.6425 -1.86792 -0.0911129 0.920595 -0.379741
9.62968 14.9424 -2.16579 -0.637447 0.209636 -0.741427
7.94058 14.6798 -3.01203 0.488028 -0.343482 -0.802402
8.06999 14.7683 -3.00102 -0.204451 0.528363 0.824034
7.69455 14.5958 -3.13298 0.48092 -0.320883 -0.815935
9.50482 14.9228 -2.22772 -0.834237 -0.54176 -0.102686
9.52222 14.9414 -2.24552 -0.281944 0.859332 -0.426681
7.08925 14.5557 -3.48002 0.515143 -0.332594 -0.789942
7.60946 14.6361 -3.18626 0.444053 -0.28593 -0.849153
7.74247 14.828 -3.18728 0.366037 -0.469063 -0.803739
7.6154 14.7559 -3.24108 0.33778 -0.257164 -0.905412
7.87876 14.7783 -3.10749 0.508315 -0.314688 -0.801616
9.63001 14.9009 -2.20527 -0.0223227 -0.176124 -0.984115
9.62807 14.913 -2.17399 -0.625559 -0.0270379 -0.779708
9.62051 14.9173 -2.16185 -0.733542 -0.0104198 -0.679564
9.26948 14.7535 -2.28917 0.38784 -0.306641 -0.869225
9.62031 14.8617 -2.18904 0.493243 0.850762 -0.181425
9.62338 14.8624 -2.18189 0.35567 0.934602 0.00422921
9.4012 14.8203 -2.28779 0.349865 -0.383856 -0.854546
9.61937 14.8542 -2.18832 0.667621 0.346722 -0.658837
9.57052 14.8649 -2.20675 0.189583 -0.336362 -0.922453
9.26288 14.7542 -2.29446 0.38784 -0.306641 -0.869225
9.41434 14.7808 -2.25279 0.494683 0.689735 -0.528729
9.6215 14.8644 -2.17614 0.35567 0.934602 0.00422921
9.60041 14.8704 -2.13614 -0.49874 -0.0165237 -0.866594
9.59441 14.8518 -2.20447 0.200806 -0.481876 -0.85292
9.61157 14.867 -2.1856 0.684904 0.727895 -0.0327858
9.60955 14.8006 -2.16787 -0.312184 0.189073 -0.931017
9.55868 14.7917 -2.17159 0.453229 0.887519 -0.0830319
9.61142 14.9034 -2.20357 0.242933 -0.515073 -0.821999
9.59033 14.8235 -2.12975 -0.68166 -0.06094 -0.729127
9.5841 14.8123 -2.12295 0.0857659 0.145558 -0.985625
9.4228 14.8498 -2.29089 0.432439 -0.263263 -0.862374
9.60764 14.8267 -2.16363 -0.841178 0.207777 -0.499248
9.56895 14.7867 -2.13737 0.717722 0.467795 -0.515794
9.51528 14.7218 -2.1361 0.374526 -0.0381381 -0.926432
9.57534 14.8732 -2.21932 0.208547 -0.115656 -0.97115
9.54032 14.7482 -2.12427 0.185228 0.515288 -0.836761
9.5885 14.7444 -2.17767 -0.0641708 0.430762 -0.900181
9.59729 14.8532 -2.13679 -0.565487 -0.0687877 -0.821883
6.94861 14.5906 -3.63695 0.745664 -0.157867 -0.647351
9.40518 14.9323 -2.33136 0.93219 0.243292 -0.268013
9.45604 14.9142 -2.2399 -0.364414 0.909064 0.202003
9.51375 14.7292 -2.1308 0.207521 -0.0406694 -0.977385
9.4425 14.8837 -2.29632 0.608647 -0.218893 -0.76265
9.60404 14.8748 -2.19429 0.649049 -0.338536 -0.68127
9.61804 14.8974 -2.17356 0.294503 0.803651 -0.51712
9.40076 14.8389 -2.29746 0.399855 -0.392529 -0.828273
9.60916 14.9026 -2.21084 0.239744 -0.654603 -0.71695
7.32708 14.6802 -3.39938 0.482834 -0.38242 -0.787798
9.58924 14.9104 -2.22759 0.17146 -0.375557 -0.910801
9.61663 14.9218 -2.15406 -0.357822 0.243267 -0.901546
9.57315 14.8522 -2.21328 -0.0379915 -0.44051 -0.896943
6.27339 14.5637 -3.99001 0.01385 0.470917 0.882069
9.54429 14.7546 -2.1051 0.288056 -0.420299 -0.860449
9.56568 14.7853 -2.13215 -0.129239 -0.101364 -0.986419
9.59587 14.9067 -2.22251 0.19305 -0.338715 -0.920871
9.42464 14.8435 -2.28307 0.466232 -0.268349 -0.842981
6.36903 14.3259 -3.88702 0.0569836 0.387676 0.920033
9.60144 14.8794 -2.13652 -0.608122 -0.323736 -0.724833
9.447 14.8696 -2.28598 0.703755 -0.163353 -0.691407
9.65894 14.5741 -1.97644 0.536202 -0.323714 -0.779549
9.60296 14.911 -2.22334 -0.453037 0.560669 0.693114
9.59396 14.8973 -2.21097 0.544488 -0.219107 -0.809645
9.61444 14.8546 -2.16372 0.81772 0.570359 -0.0776255
9.5834 14.8223 -2.11875 0.138272 0.0466104 -0.989297
9.44614 14.838 -2.27239 0.350025 -0.360946 -0.864408
9.4374 14.8325 -2.27651 0.516309 -0.363793 -0.775293
9.50125 14.92 -2.24494 -0.962045 -0.0854124 -0.259181
9.60941 14.8287 -2.16653 -0.899042 0.0182759 0.437482
4.11408 13.4152 -3.51041 -0.367017 0.918987 -0.144085
9.41362 14.8488 -2.29559 0.531874 -0.334975 -0.777755
9.59083 14.8782 -2.21505 0.339564 -0.353947 -0.871446
9.59275 14.8475 -2.12858 -0.396348 -0.102942 -0.912311
9.57409 14.9087 -2.22759 0.186902 -0.359605 -0.914195
3.48644 12.8181 -4.96179 0.581214 -0.490008 -0.649678
9.63485 14.9234 -2.19087 -0.243736 0.87674 0.414633
7.31164 14.4202 -3.32929 0.517575 -0.15681 -0.841146
9.5848 14.7357 -2.18426 -0.0641708 0.430762 -0.900181
9.43992 14.8259 -2.26431 0.359491 -0.33005 -0.872831
9.43418 14.8116 -2.2654 0.268099 -0.507469 -0.818901
9.42756 14.8588 -2.29178 0.416339 -0.300939 -0.857961
9.62399 14.9237 -2.21324 -0.497209 0.658945 0.564424
9.50475 14.9357 -2.25545 -0.481607 0.632711 0.606409
1.61742 12.255 -5.56552 0.506908 -0.194163 -0.839848
9.2689 14.7412 -2.27351 0.379469 -0.138384 -0.914797
9.63453 14.926 -2.2119 0.133479 0.989071 0.0626264
7.49527 14.5678 -3.20461 0.549 -0.330973 -0.7675
9.40031 14.7882 -2.25785 0.433597 -0.474978 -0.765761
9.38256 14.7965 -2.28208 -0.453647 0.551134 0.700325
9.48892 14.9692 -2.2879 0.263688 -0.594689 -0.759483
9.47516 14.9768 -2.29913 0.352381 -0.268781 -0.896429
9.49185 14.975 -2.29364 0.463848 -0.41023 -0.785211
7.4284 14.4285 -3.25587 0.57626 -0.329208 -0.748028
9.40614 14.9389 -2.29702 -0.150717 0.959251 0.239001
9.48713 14.9322 -2.26483 -0.271612 0.693014 0.667801
9.28614 14.7723 -2.27648 0.5971 -0.0856078 -0.797586
9.41394 14.9447 -2.2802 0.539656 0.829141 0.145932
9.40037 14.8213 -2.29082 0.349865 -0.383856 -0.854546
9.60934 14.8939 -2.21142 0.597712 0.539387 -0.593129
9.56703 14.8625 -2.22013 0.189583 -0.336362 -0.922453
9.38109 14.8282 -2.30381 0.399246 -0.347019 -0.848634
9.50497 14.9284 -2.25678 -0.575555 0.605622 0.549508
9.48571 14.9399 -2.27161 0.388275 -0.49413 -0.777868
9.62968 14.9006 -2.20648 -0.0223227 -0.176124 -0.984115
9.41191 14.8303 -2.285 0.384609 -0.294232 -0.874931
9.63314 14.9471 -2.18801 -0.955316 0.277392 -0.102106
9.61618 14.9226 -2.22125 0.435507 -0.491896 -0.753904
9.61197 14.8553 -2.19426 0.514574 0.32271 -0.794401
9.38651 14.8432 -2.30648 -0.362625 0.629902 0.686824
9.37062 14.8119 -2.30341 0.405651 -0.360717 -0.83984
9.49583 14.934 -2.22635 -0.755662 0.598379 -0.266303
9.57518 14.7824 -2.15842 0.453229 0.887519 -0.0830319
9.4099 14.8843 -2.3123 0.516319 -0.248653 -0.819503
9.5997 14.7177 -2.22536 -0.776877 -0.356217 -0.519202
9.41624 15.0029 -2.34291 0.288505 -0.497242 -0.818239
9.55707 14.8037 -2.14179 0.604362 0.37657 -0.702098
9.57924 14.7236 -2.19543 -0.735546 0.0980347 -0.670344
9.59259 14.7291 -2.25762 -0.784309 -0.300967 -0.542474
9.50863 14.7097 -2.13323 -0.896889 0.391614 0.205497
9.59747 14.9509 -2.24746 0.639739 -0.00240855 -0.768589
9.62298 14.8553 -2.18619 0.335902 0.89359 -0.29777
9.64954 14.9441 -2.21425 0.00864308 0.798863 -0.601451
9.59649 14.9322 -2.23576 0.394105 -0.423768 -0.815538
9.6132 14.9238 -2.22096 0.435507 -0.491896 -0.753904
9.50276 14.9624 -2.277 0.23357 -0.666077 -0.708369
9.49879 14.937 -2.23076 -0.755662 0.598379 -0.266303
9.52036 14.9487 -2.26019 0.112881 -0.730006 -0.674055
9.62301 14.9302 -2.21865 0.293729 -0.561141 -0.77385
9.50016 14.9281 -2.24976 0.295975 0.944939 -0.139604
9.53236 14.9614 -2.26746 0.550535 -0.0384292 -0.833927
9.51779 14.9689 -2.27666 0.341566 -0.556165 -0.757637
9.52263 14.9582 -2.27225 0.411906 -0.477279 -0.776233
9.52921 14.9735 -2.27159 0.561436 -0.130675 -0.817137
6.9805 14.4019 -3.50201 0.468234 -0.373827 -0.800631
7.97757 14.7619 -3.03091 0.418353 -0.414066 -0.808412
6.48645 14.8234 -3.91401 0.492654 -0.0917044 -0.86538
7.46743 14.8741 -3.36532 0.534265 -0.298135 -0.790997
6.62374 14.8398 -3.82865 0.294668 -0.0857644 -0.951743
9.40988 14.9382 -2.28746 0.34087 0.929191 -0.142873
9.43209 14.9485 -2.29538 0.399317 0.916642 -0.0177138
9.42092 14.9782 -2.31932 0.334967 -0.600686 -0.725929
9.41487 14.9487 -2.30057 -0.150717 0.959251 0.239001
9.40427 14.9546 -2.27822 -0.150717 0.959251 0.239001
9.45842 14.9798 -2.30475 0.546395 -0.208617 -0.81113
9.44712 14.9918 -2.32537 0.334255 -0.633212 -0.69808
9.45691 14.9862 -2.3137 0.340494 -0.61261 -0.713284
9.5053 14.9677 -2.28269 0.0915065 -0.714108 -0.694029
6.91449 14.6988 -3.61067 0.745664 -0.157867 -0.647351
6.50388 14.8832 -3.9271 0.542069 -0.541758 -0.642386
8.21213 14.9165 -3.1456 0.399948 0.0929005 0.911817
8.19622 14.9275 -3.14001 0.399948 0.0929005 0.911817
5.80668 14.8675 -4.38533 -0.317753 0.81998 0.476094
8.0045 14.9463 -3.08398 0.576322 0.173019 0.798698
7.7962 14.9202 -3.20118 0.368536 -0.477239 -0.797762
7.73953 14.7697 -3.18422 0.43851 -0.316439 -0.841175
8.16691 14.8966 -3.11808 0.312449 0.904749 0.289491
8.56102 15.0852 -2.81793 0.510622 -0.362807 -0.77951
8.04305 15.0881 -3.13066 0.748783 0.0599711 -0.660096
6.98131 14.8465 -3.61212 0.616298 -0.120207 -0.778285
7.96877 15.07 -3.25362 0.608748 0.0914002 -0.788081
6.10739 14.3351 -3.90232 0.36061 0.367166 -0.857409
6.81175 14.7551 -3.72281 0.4554 -0.0998031 -0.884675
9.27817 14.7625 -2.28185 0.609431 -0.197619 -0.767815
9.26364 14.7816 -2.29685 0.38784 -0.306641 -0.869225
9.41601 14.7846 -2.24805 -0.150943 0.987339 0.0487663
9.41129 14.9435 -2.3054 -0.566185 -0.742941 -0.357033
9.40424 14.9666 -2.31956 0.664119 -0.221711 -0.713996
9.36979 14.843 -2.31619 -0.445136 0.582022 0.680518
9.41346 14.9588 -2.3133 -0.430839 0.621057 0.654725
9.37831 14.9892 -2.34728 0.182001 -0.571474 -0.800183
9.37564 14.9792 -2.33871 0.0477238 -0.680112 -0.731554
9.41305 14.9172 -2.32232 -0.972847 0.0752539 0.218872
9.38004 14.9946 -2.3557 0.29275 -0.612065 -0.734625
9.4109 14.791 -2.24498 -0.150945 0.987338 0.0487677
9.35576 14.8147 -2.30769 0.490655 -0.381613 -0.783345
8.02691 14.9648 -3.06305 0.576322 0.17302 0.798697
9.35804 14.989 -2.35259 0.159081 -0.653474 -0.740043
8.09084 14.9534 -3.15521 0.312448 0.904749 0.289492
8.06969 14.9197 -3.14218 0.312448 0.904749 0.289492
8.05319 14.942 -3.13572 0.41572 0.0737762 0.906496
7.81326 15.0402 -3.35092 0.698363 -0.14823 -0.700227
7.12962 14.5456 -3.4541 0.505131 -0.340358 -0.793095
8.05688 14.8891 -3.05775 0.597917 0.402158 0.693372
7.81713 14.8872 -3.35096 0.464559 0.136579 0.874947
8.06477 14.9975 -3.06153 0.576322 0.173019 0.798698
9.39336 14.966 -2.32462 0.150333 -0.64309 -0.75089
9.42132 14.8245 -2.2823 0.49259 -0.368822 -0.788242
9.41567 14.9194 -2.32676 -0.972847 0.0752539 0.218872
9.30249 14.7577 -2.26112 0.312702 -0.202327 -0.928052
9.60264 14.9523 -2.24601 0.650386 0.0504695 -0.757925
9.65208 14.9446 -2.2179 0.337505 -0.142799 -0.93043
9.60268 14.9451 -2.23616 0.828132 0.20615 -0.521248
9.39029 14.987 -2.34723 0.206951 -0.557633 -0.803877
9.60338 15.0071 -2.25983 0.399378 0.812049 -0.425527
9.37327 14.8339 -2.30764 0.413554 -0.362242 -0.835316
9.57248 14.8619 -2.21992 0.189583 -0.336362 -0.922453
9.37026 14.9776 -2.33064 0.0470981 0.791612 0.609206
9.4092 15.0093 -2.34624 0.299352 -0.475956 -0.826955
9.34294 14.996 -2.35752 0.14093 -0.713525 -0.686309
9.39898 14.8183 -2.28937 0.331162 -0.465108 -0.820979
9.38253 15.0125 -2.36109 0.331212 -0.552435 -0.764927
9.41358 14.9112 -2.32518 -0.972847 0.0752542 0.218872
9.39888 14.8555 -2.31591 0.425737 -0.442912 -0.789035
9.50091 14.941 -2.2342 -0.755662 0.598379 -0.266303
9.43127 14.9113 -2.23584 0.817804 0.384855 -0.427883
9.38628 14.8458 -2.31094 -0.362625 0.629902 0.686823
9.39405 15.0373 -2.38034 0.310877 -0.60602 -0.732186
9.39524 15.0198 -2.36285 0.361462 -0.542734 -0.758146
9.65812 14.9972 -2.21834 0.342881 0.920058 -0.189542
9.42949 15.0003 -2.33592 0.180294 -0.688607 -0.702364
9.55991 15.0169 -2.2785 0.272638 0.862371 0.426597
9.53748 14.9862 -2.27076 0.59532 -0.0785954 -0.799636
9.44506 15.0067 -2.33785 0.201721 -0.624078 -0.754875
9.42914 14.7993 -2.24713 0.115461 -0.612751 -0.781796
5.71855 14.8411 -4.61814 0.451288 -0.622992 -0.638921
7.25547 14.8126 -3.47059 0.395988 -0.336016 -0.854568
9.44656 14.9986 -2.33086 -0.428888 0.62273 0.654418
9.35674 15.0391 -2.39435 0.210126 -0.668686 -0.713236
9.47974 14.9883 -2.31384 0.546395 -0.208617 -0.81113
9.52324 15.0109 -2.28969 -0.530957 0.572603 0.624668
9.34741 15.0206 -2.384 0.203902 -0.640265 -0.740597
9.41506 15.0112 -2.35316 0.274367 -0.491119 -0.826756
9.41851 15.0312 -2.35854 0.230509 -0.625142 -0.745696
9.56401 15.0105 -2.27732 -0.0123388 -0.374926 -0.926973
9.47834 15.0329 -2.33274 0.743112 -0.198134 -0.639161
9.54204 15.0129 -2.28209 0.0061212 0.841991 0.539456
9.43431 15.0147 -2.35186 0.207306 -0.594374 -0.777009
9.38247 15.025 -2.37265 0.332457 -0.536327 -0.775774
9.54727 15.0208 -2.28406 0.0061212 0.841991 0.539456
9.3633 14.7912 -2.29434 0.306737 -0.537879 -0.785238
7.61783 14.9696 -3.26048 0.340112 -0.422638 -0.84006
9.50535 14.9503 -2.26487 -0.389402 0.628577 0.673244
7.37958 14.6624 -3.33711 0.41194 -0.396087 -0.820622
7.51461 14.4019 -3.15553 0.565097 -0.546804 -0.617795
9.26654 14.7874 -2.29004 0.38784 -0.306641 -0.869225
9.61395 14.8942 -2.20908 0.465498 0.213116 -0.859007
9.60406 15.0062 -2.25545 0.399378 0.812049 -0.425527
9.53422 15.0273 -2.30281 -0.321283 0.805998 0.497135
9.53457 14.971 -2.26329 0.561436 -0.130675 -0.817137
6.00262 14.8622 -4.2384 0.434884 -0.8692 -0.235301
6.54943 14.4228 -3.88535 -0.0568573 0.889922 -0.452556
9.57702 14.8483 -2.20748 -0.112124 -0.612298 -0.782636
9.56335 14.743 -2.16737 -0.864004 0.432204 -0.258257
9.39843 14.845 -2.29966 0.392797 -0.516405 -0.760944
5.94426 14.2502 -4.16021 -0.300104 0.75601 0.58171
9.44452 14.8412 -2.27705 0.392592 -0.411565 -0.822488
6.968 14.7148 -3.81911 0.340894 0.938678 0.0517266
7.07135 14.6035 -3.4894 0.513975 -0.298419 -0.804224
7.53556 14.5272 -3.22236 0.552488 -0.300038 -0.777647
9.33733 15.0195 -2.39054 0.255023 -0.643182 -0.721998
9.39977 14.808 -2.28243 0.370833 -0.580499 -0.724917
9.20042 15.0704 -2.46713 0.547684 -0.249172 -0.798721
9.62694 14.9197 -2.17713 -0.625559 -0.0270379 -0.779708
9.53332 15.0314 -2.3 -0.321284 0.805998 0.497135
9.46834 15.0043 -2.30227 0.431974 -0.476955 -0.765449
9.55147 14.9949 -2.26766 -0.878014 0.473087 0.0726631
9.59198 14.8305 -2.19488 -0.135963 0.802992 0.580274
9.30332 15.03 -2.39422 0.296842 -0.635083 -0.71313
9.37182 15.0314 -2.38377 0.274921 -0.630846 -0.72557
9.50987 15.0006 -2.2918 0.443741 -0.357592 -0.821719
6.05092 14.86 -4.50935 0.459953 -0.863641 -0.206319
9.49597 14.6902 -2.15751 -0.662016 0.153478 -0.733607
9.46452 14.8296 -2.26225 0.232842 -0.311254 -0.921361
9.54784 15.2362 -2.34537 -0.375943 -0.849838 -0.369381
9.5215 15.287 -2.35607 -0.419928 -0.729115 -0.540418
9.5536 15.2316 -2.33253 0.123819 0.947531 0.29471
9.41991 15.5204 -2.72598 -0.422123 -0.802315 -0.422022
9.57836 15.2277 -2.30724 -0.409233 -0.824236 -0.391361
9.31952 15.7313 -2.68153 0.367255 -0.66132 -0.654049
9.2573 15.5946 -2.65033 -0.260774 -0.876327 -0.405028
9.27647 15.5787 -2.62046 -0.978061 -0.191504 0.0819898
9.3936 15.615 -2.5784 0.318716 0.445077 -0.836855
9.57047 15.2458 -2.32736 0.636655 -0.331351 -0.696331
7.55919 18.1552 -3.94463 0.737209 -0.654414 -0.168119
9.33444 15.5845 -2.6063 0.189641 0.625902 -0.756494
9.43612 15.514 -2.7323 -0.422123 -0.802315 -0.422022
9.34965 15.7404 -2.6502 -0.117941 -0.564502 -0.816962
9.3858 15.7396 -2.69726 0.394972 -0.574685 -0.716753
9.3702 15.7801 -2.70386 0.194477 0.349285 -0.916613
9.37761 15.8336 -2.68498 -0.243782 -0.873633 -0.421113
9.42306 15.763 -2.63018 0.274171 -0.74257 -0.611081
9.29991 15.7295 -1.90932 -0.746644 0.501206 -0.437396
9.32789 15.6973 -1.95286 -0.0502275 0.844597 -0.533041
8.15781 17.9296 -3.44942 -0.34065 -0.935563 0.0931684
7.90954 18.1228 -4.6955 0.544603 -0.511857 0.664387
7.87197 17.9448 -4.63441 0.553454 -0.414332 0.722508
8.08706 18.0708 -3.58635 -0.34065 -0.935563 0.0931685
7.50862 18.2613 -4.01098 0.737209 -0.654414 -0.168119
8.07544 17.9818 -3.46441 -0.34065 -0.935563 0.0931685
9.34725 15.7482 -2.66854 0.446644 -0.615594 -0.649271
9.31469 15.7209 -2.65402 -0.133613 0.951024 -0.278749
9.33714 15.8534 -2.72433 -0.0170298 -0.948648 -0.315874
9.38358 15.7419 -2.66666 -0.886379 -0.060865 -0.458942
9.4017 15.7958 -2.66947 -0.00661918 -0.00606622 -0.99996
9.45173 15.7369 -2.59131 -0.200976 -0.949439 -0.241193
9.48121 15.7231 -2.58626 0.0131689 0.406259 -0.913663
9.50804 15.7291 -2.59099 -0.140392 -0.836914 -0.529023
9.42779 15.7735 -2.62697 0.423303 -0.715888 -0.555264
9.17548 15.6708 -2.74182 0.42205 -0.316816 -0.849412
7.47032 18.1851 -3.91808 0.737209 -0.654414 -0.168119
9.41718 15.9831 -2.7106 0.411818 -0.0675756 -0.908757
9.49456 15.6555 -2.53925 -0.133958 0.956258 -0.260051
9.73276 15.2869 -2.25174 -0.657633 -0.471506 -0.587538
9.50008 15.7007 -2.53158 -0.263959 0.180108 -0.947569
9.73014 15.2994 -2.25139 -0.657633 -0.471506 -0.587538
9.71793 15.3246 -2.27201 -0.591001 -0.573628 -0.567158
9.72128 15.3282 -2.24126 -0.558611 -0.606837 -0.565423
9.71466 15.3299 -2.26497 -0.503967 -0.748027 -0.431826
9.29547 15.7621 -2.70991 0.344614 0.289597 -0.892959
9.1921 16.5104 -2.95267 -0.952127 -0.227048 -0.204703
9.14675 16.6042 -2.9057 -0.965594 -0.231013 -0.119423
9.21781 15.6375 -2.67963 -0.30258 -0.877418 -0.372267
9.27878 15.6983 -1.90799 0.395206 -0.861291 -0.31936
9.51998 15.9962 -2.67214 0.441817 -0.0841752 -0.893148
9.38661 15.5237 -2.72025 -0.251671 -0.840934 -0.479053
9.18651 16.5165 -2.97761 -0.952127 -0.227048 -0.204703
9.06746 16.8235 -3.02461 0.142513 0.126358 -0.981694
9.06306 16.6912 -3.02898 -0.830837 -0.418688 -0.366619
9.26243 16.7659 -3.18307 0.604234 -0.774746 -0.186199
9.20913 16.6017 -3.08132 -0.988577 -0.0828212 -0.125924
9.28818 15.7341 -1.90836 -0.705553 0.281712 -0.650257
9.27176 15.7874 -1.83403 -0.557194 0.531225 -0.638228
9.18404 16.8815 -2.99672 -0.201763 -0.369339 0.907128
9.27227 16.805 -3.18093 0.604233 -0.774747 -0.186199
9.38242 16.2235 -1.96657 0.193961 -0.398705 -0.896333
9.37999 16.141 -1.94116 -0.274882 0.356686 -0.892869
9.41093 15.9878 -1.8296 0.546736 -0.406953 -0.731757
9.42134 15.9483 -1.81513 0.451449 -0.347056 -0.822038
9.41361 15.953 -1.83949 0.451449 -0.347055 -0.822038
9.42178 16.0327 -1.84275 0.498747 -0.354481 -0.790946
9.15858 16.803 -2.99124 -0.807618 0.218358 -0.547789
9.22267 16.7379 -3.14876 -0.869107 0.1473 -0.472182
9.18221 16.8283 -2.97413 0.0924503 -0.0618899 -0.993792
9.3001 15.519 -2.57719 0.790855 0.0696416 -0.608028
9.20878 16.6327 -2.9114 -0.965594 -0.231013 -0.119423
9.38737 15.5993 -2.57368 0.318716 0.445077 -0.836855
9.26286 15.6744 -1.79694 0.337019 -0.301246 -0.892003
9.28876 15.8315 -1.83952 -0.313492 0.597982 -0.737659
8.28178 17.8516 -3.89244 -0.0560269 -0.998138 0.0241228
9.31898 15.7101 -1.95297 -0.315536 -0.948229 -0.0360458
9.20333 16.7488 -3.14434 -0.869107 0.1473 -0.472182
9.2356 16.7458 -3.18252 0.604234 -0.774746 -0.186199
9.40203 16.7611 -3.28074 -0.318569 -0.906214 -0.278011
9.3918 16.2706 -1.96468 -0.821105 -0.294317 -0.489043
9.42274 15.9953 -1.83348 0.464756 -0.2943 -0.835098
9.24378 16.8162 -3.29924 -0.549775 -0.745413 -0.376969
9.45865 16.1492 -1.87363 0.813127 -0.233861 -0.533041
9.42526 16.226 -1.94752 0.749249 0.229921 -0.621097
9.18595 16.9081 -3.02483 -0.129586 -0.462557 0.877068
9.42201 16.2499 -1.9245 -0.143727 -0.286632 -0.947198
9.44056 16.0847 -1.87001 0.406599 -0.350265 -0.843796
9.25056 16.9619 -2.33811 0.291265 -0.0326739 -0.956084
9.3906 16.5698 -2.09916 0.656601 -0.237359 -0.715916
9.76272 15.8559 -2.44817 -0.694586 0.540132 0.475193
9.53072 15.2727 -2.35572 -0.64027 -0.644182 -0.418431
9.34133 15.6482 -2.03561 -0.741348 0.0490244 -0.669328
9.4208 16.1707 -1.93933 0.483592 -0.492798 -0.723388
8.77499 18.2736 -4.35685 0.324599 -0.913446 -0.245463
9.29443 16.706 -2.22048 0.565335 -0.533124 -0.629424
9.28022 15.4786 -2.78219 0.188109 0.705835 -0.682944
9.33357 15.4382 -2.78599 0.0592361 0.81217 -0.580406
9.39466 15.5376 -2.56594 0.622737 0.00144024 -0.78243
9.27842 15.7175 -1.81935 0.496552 -0.555569 -0.666917
9.45332 16.0268 -2.6972 0.441817 -0.0841752 -0.893148
9.56125 16.7731 -3.37084 0.557621 -0.386649 -0.734549
9.22042 15.6905 -1.8163 0.334966 0.152425 -0.92982
9.69703 15.6917 -2.4331 0.461524 -0.590521 -0.662028
9.34822 16.4374 -2.07004 0.161222 -0.577769 -0.800119
9.44709 16.1784 -1.90489 0.792818 -0.240663 -0.559929
9.50115 16.0275 -1.81764 0.291137 -0.330521 -0.897773
9.46535 15.9737 -1.80396 0.437939 -0.2561 -0.861755
9.52215 16.0916 -1.83146 0.538288 -0.456094 -0.708678
9.44777 16.3688 -1.97656 0.49662 -0.423128 -0.757847
9.72269 15.6969 -2.41786 -0.719001 0.288449 0.632324
9.46 16.066 -1.82281 0.457282 -0.495524 -0.738477
9.25265 17.1429 -2.47021 0.134466 -0.284342 -0.949246
9.70245 15.9624 -2.55376 0.324898 0.0577947 -0.943982
9.48511 16.2843 -1.93239 0.43288 -0.384383 -0.815392
9.53747 16.1262 -1.86057 0.427703 -0.0667048 -0.901455
9.4027 16.242 -1.94284 -0.764761 -0.351036 -0.540291
9.49047 16.3427 -1.94748 0.513434 -0.453839 -0.728296
9.50832 16.2832 -1.92337 0.540241 -0.35244 -0.764151
9.44904 16.1781 -1.90119 0.935872 -0.0418642 -0.349843
9.42718 17.0304 -2.92442 0.180177 -0.550449 0.815195
9.41192 16.658 -2.09044 0.609221 -0.213145 -0.763819
9.30009 17.1834 -2.49424 -0.105367 0.0698793 -0.991975
9.51347 16.3514 -1.94537 0.55494 -0.397908 -0.730555
9.28986 16.7527 -2.23148 0.565335 -0.533124 -0.629424
9.5014 16.4165 -1.97169 0.518236 -0.363855 -0.773978
9.29835 17.293 -2.45825 0.8631 -0.342787 -0.370884
9.54066 16.256 -1.86741 0.625362 -0.256856 -0.736849
9.28542 17.2476 -2.41581 0.81986 -0.0703244 -0.568229
9.39121 16.949 -2.27184 -0.0439167 -0.783306 -0.620082
9.55188 16.2407 -1.8507 0.714799 -0.155829 -0.681748
9.55778 16.2008 -1.82157 0.638432 -0.127173 -0.759099
9.5779 16.1566 -1.81533 0.538995 0.0202517 -0.842066
9.39144 16.5625 -2.09323 0.656601 -0.237359 -0.715916
9.53774 16.8084 -3.34231 0.557621 -0.386649 -0.734549
9.29601 17.0068 -2.34373 0.562396 -0.48669 -0.668463
9.57468 16.8027 -3.41282 -0.557621 0.386649 0.734549
9.35367 16.9533 -2.32113 0.32767 -0.721509 -0.609965
9.34609 15.4016 -2.90396 -0.054955 0.927817 -0.368966
9.55435 15.2416 -2.33295 0.491351 0.831643 -0.258735
9.57872 15.23 -2.30794 -0.409233 -0.824236 -0.391361
7.64345 17.7559 -4.6716 0.575026 -0.274549 0.770693
7.96352 17.9065 -4.60302 0.553454 -0.414332 0.722508
8.74618 18.058 -4.20516 0.311971 -0.932163 -0.183703
9.18332 15.4538 -2.69989 0.643598 0.651862 -0.401071
9.32543 15.4032 -2.87915 -0.077588 0.963212 -0.2573
9.11815 15.5583 -2.70908 -0.326237 -0.810522 -0.486439
9.27056 15.4708 -2.79995 0.20485 0.842215 -0.498708
9.13999 15.5009 -2.68384 -0.0822256 0.771519 -0.63087
7.53816 17.8205 -4.41008 0.462795 -0.499138 0.732586
7.38243 17.9582 -3.85198 0.703775 -0.700281 0.119614
9.3316 15.6218 -2.01255 -0.617902 -0.617634 -0.486545
9.25016 15.6954 -1.80961 0.209174 -0.0622849 -0.975893
9.35157 15.6868 -2.03377 -0.886198 0.324136 -0.331041
9.3394 15.6347 -1.74687 0.0473711 -0.745701 -0.664595
9.35662 15.6637 -1.77884 0.255891 -0.551581 -0.7939
9.38214 15.6896 -1.71833 0.269951 -0.163599 -0.948874
9.36864 15.7253 -1.73477 0.637239 -0.336143 -0.693495
9.58797 15.6475 -2.49385 0.23746 0.970972 -0.0287487
9.40308 15.7478 -1.72419 0.301909 -0.323951 -0.896609
9.25879 17.1969 -2.45367 -0.901576 0.235054 -0.363194
9.44275 16.6272 -2.07172 0.60922 -0.213145 -0.763819
9.62714 15.8817 -1.6638 0.381088 -0.409839 -0.828736
9.6021 15.9712 -1.69825 0.512769 -0.42649 -0.7451
9.46184 16.983 -2.26527 -0.129232 0.0453159 -0.990578
9.37526 16.9385 -2.2881 -0.392159 -0.742896 0.542509
9.6816 16.0235 -1.71082 0.559551 -0.40227 -0.724625
9.55885 16.2111 -1.82496 0.638432 -0.127173 -0.759099
9.68878 16.834 -3.1326 0.494773 -0.838014 -0.23007
9.44234 16.1728 -1.95363 0.545071 -0.477609 -0.689048
9.67658 16.0793 -1.73329 0.455575 -0.381049 -0.80452
9.69812 15.9854 -1.6746 0.352583 -0.414883 -0.838783
9.51369 16.954 -2.15636 0.76623 -0.124337 -0.630422
9.75065 16.0348 -2.53388 -0.133675 -0.0189021 -0.990845
9.6131 16.4987 -1.94568 0.485323 -0.216493 -0.847108
9.35626 17.7749 -2.52122 0.487222 -0.219029 -0.845364
9.63861 16.3163 -1.81987 0.451483 -0.313532 -0.83538
9.76818 16.8474 -3.33141 0.282965 -0.957616 0.0538782
9.71803 16.6948 -2.81297 -0.734339 -0.590956 -0.333941
9.69892 16.0144 -1.67135 0.390373 -0.458745 -0.798224
9.67856 16.1936 -1.77084 0.456733 -0.21034 -0.86438
9.68605 16.1314 -1.74264 0.365059 -0.348691 -0.863219
9.36574 18.0764 -2.78408 0.70072 -0.289381 -0.652111
9.58465 16.8778 -2.14824 0.704715 -0.115725 -0.699989
9.66261 16.3448 -1.83774 0.478811 -0.349781 -0.805229
9.67239 16.8239 -3.13294 0.494773 -0.838014 -0.23007
9.65454 16.4793 -1.89832 0.668414 -0.332715 -0.665225
9.3047 16.7556 -2.23911 0.565335 -0.533124 -0.629424
9.21152 15.6815 -1.83739 0.240451 0.598172 -0.764443
7.35693 18.0076 -3.89248 0.703775 -0.700281 0.119614
9.35364 15.6014 -2.0345 -0.534336 -0.832785 -0.144754
9.60667 15.6642 -2.48214 0.23746 0.970972 -0.0287487
9.31315 16.6658 -2.19743 0.419461 -0.430492 -0.799205
9.51033 16.1337 -1.85933 0.168234 -0.332981 -0.927805
9.41453 16.215 -1.96427 0.404532 -0.0706667 -0.911789
9.2813 17.2598 -2.45302 0.81986 -0.0703244 -0.568229
9.63404 16.8044 -3.34106 0.338939 -0.883457 0.323457
9.746 15.9832 -2.52426 0.149397 0.071932 -0.986157
9.76774 15.9964 -2.54856 -0.133675 -0.0189021 -0.990845
9.63072 16.8362 -3.29824 0.222625 -0.971264 0.0841754
9.35169 17.2179 -2.3908 0.618047 0.203999 -0.759212
9.38051 16.9883 -2.24903 -0.202632 0.480229 -0.853417
9.77063 16.0234 -2.54261 -0.133675 -0.0189021 -0.990845
9.32215 17.3962 -2.53593 0.679036 -0.331602 -0.654943
9.55056 16.3898 -1.93217 0.568709 -0.383005 -0.727926
9.64448 16.8566 -3.24477 0.159306 -0.987092 0.0164805
9.54255 16.1759 -1.86536 0.47796 -0.0125351 -0.878292
9.6023 16.1766 -1.79573 0.424733 -0.00987301 -0.905265
9.35778 17.4136 -2.51148 0.679036 -0.331602 -0.654943
9.54916 16.1535 -1.83251 0.685009 -0.14585 -0.713786
9.34083 17.5384 -2.54809 0.568712 -0.0406659 -0.821531
9.45189 17.0282 -2.32984 0.423784 -0.407567 -0.808886
9.48471 16.8384 -2.17529 0.454947 -0.66656 -0.590526
9.48104 16.9383 -2.29245 -0.129232 0.0453159 -0.990578
9.54116 16.5944 -2.01112 0.5833 -0.0864029 -0.807649
9.63112 16.1556 -1.79124 0.407738 -0.272549 -0.871474
9.45239 17.0473 -2.23731 0.600482 -0.584407 -0.545793
9.66903 16.8356 -3.09901 0.494773 -0.838014 -0.23007
9.5985 16.7197 -2.70381 -0.682558 -0.629561 -0.371169
9.4995 16.8856 -2.15294 0.549117 -0.161948 -0.819904
9.33856 17.3098 -2.42798 0.740964 -0.443897 -0.503912
9.30166 15.7726 -1.86959 -0.320395 0.604767 -0.729111
9.1614 15.4829 -2.7779 -0.196565 0.511639 -0.836414
9.17107 15.4888 -2.80882 -0.115628 0.644284 -0.755995
9.21358 15.4824 -2.80176 0.165777 0.894998 -0.414121
5.52371 19.4279 -5.69312 0.361095 -0.733884 -0.575348
7.35992 17.9486 -4.15967 -0.560604 -0.802617 0.203785
9.32501 15.7198 -2.66104 -0.464009 0.854409 0.233841
9.2294 15.6683 -1.86181 -0.634677 0.411819 -0.653904
9.39905 15.762 -2.65976 0.701748 -0.319916 -0.636555
9.34648 15.6224 -1.7373 0.415004 -0.575324 -0.704822
9.32315 15.7269 -1.92484 -0.672879 0.366251 -0.642724
9.34546 15.7156 -1.98273 -0.106996 0.930184 -0.351155
9.34428 15.6454 -1.7206 0.650789 0.0764893 -0.755396
9.28149 15.8049 -1.8299 -0.891156 0.397988 -0.217821
9.31403 15.6587 -1.76519 0.292995 -0.546922 -0.784239
7.25924 18.186 -3.97968 0.440283 -0.661217 -0.607407
9.31777 15.688 -1.79141 0.310028 -0.417749 -0.854031
9.41599 15.6912 -1.71493 0.198289 -0.24367 -0.949372
8.24963 17.8517 -3.87222 -0.0560269 -0.998138 0.0241228
9.34421 15.72 -1.78529 0.474779 0.0722248 -0.877136
9.42951 15.7437 -1.7172 0.400361 -0.142809 -0.905161
9.50925 15.7965 -1.69756 0.446259 -0.183835 -0.875818
9.2629 16.6873 -2.23068 0.289358 -0.734842 -0.613416
9.5228 16.7096 -3.34932 0.240113 -0.970057 0.0365306
9.46965 16.1608 -1.86329 -0.29703 -0.917916 -0.263064
9.55739 16.1477 -1.83097 0.685009 -0.14585 -0.713786
9.29976 17.1085 -2.409 0.488771 -0.409616 -0.770271
9.78204 16.0378 -2.54569 -0.133675 -0.0189021 -0.990845
9.35419 17.3712 -2.50173 0.683891 -0.407341 -0.605282
9.60715 16.1953 -1.8188 0.444342 -0.130963 -0.886233
9.59432 17.2279 -2.80541 0.28798 -0.669388 0.684827
9.41497 17.1834 -2.35766 0.621584 0.0473715 -0.781914
9.36046 18.1216 -2.75964 0.70072 -0.289381 -0.652111
9.35553 18.1034 -2.67445 0.70072 -0.289381 -0.652111
9.78169 16.8992 -3.12949 -0.821801 0.529753 -0.209772
9.47789 16.1968 -1.89719 0.145293 -0.984557 -0.0976653
9.57676 17.0704 -2.17675 0.736504 -0.0911203 -0.670268
9.40414 18.2442 -2.76363 0.70072 -0.289381 -0.652111
9.52498 16.8386 -2.14356 0.580714 -0.276213 -0.765818
9.67286 16.5467 -1.89141 0.452472 -0.114939 -0.884341
9.52511 16.9393 -2.16155 0.76623 -0.124337 -0.630422
9.36022 16.9497 -2.26701 0.0589553 -0.787568 -0.613401
9.24586 15.6623 -1.86879 -0.797762 0.368097 -0.477578
9.35424 15.4002 -2.85095 -0.0690691 0.814011 -0.576729
9.29843 15.672 -1.77752 0.214181 -0.546228 -0.809791
9.20456 16.8084 -3.01479 -0.663109 0.388403 -0.639867
9.17591 15.467 -2.68911 -0.014209 0.0202154 -0.999695
9.18603 15.4918 -2.84992 -0.0544752 0.818758 -0.571549
8.94412 15.7343 -2.88209 0.574539 -0.345085 -0.742173
9.28631 15.4943 -2.62775 0.6868 0.43878 -0.579463
9.51766 15.2723 -2.36625 -0.48185 -0.670717 -0.563879
9.57628 15.2216 -2.31504 -0.992326 -0.0160923 -0.122597
6.38749 18.5222 -4.78817 -0.426177 -0.885516 0.185024
9.39502 15.5202 -2.70306 -0.251671 -0.840934 -0.479053
6.75436 18.2891 -4.51252 -0.500342 -0.85724 0.121645
6.27002 19.0053 -5.58249 0.793457 0.571687 0.208804
5.45723 19.8182 -5.95288 0.0183683 -0.703954 -0.710008
5.9551 19.2102 -5.31622 0.897753 0.170865 -0.40601
9.43797 15.5034 -2.7393 -0.422123 -0.802315 -0.422022
5.33118 20.0846 -6.4242 0.909076 0.103234 -0.403638
8.31919 16.6396 -3.30755 0.6948 0.296559 0.655214
5.77604 19.5053 -5.43776 0.396501 -0.75173 -0.526962
9.17761 15.6558 -2.73388 -0.0720999 -0.760566 -0.645245
5.52304 19.9469 -6.10542 0.657275 0.567132 0.496337
9.17562 15.7851 -2.81735 0.437829 -0.619839 -0.651233
9.2826 15.5727 -2.60781 0.168396 -0.152133 -0.973909
7.36428 17.9756 -4.41676 0.0512992 -0.859235 0.509002
8.29717 16.6401 -3.33557 0.6948 0.296559 0.655214
9.18519 15.7081 -2.71681 0.328184 -0.152898 -0.932157
9.17642 15.6369 -1.89977 0.10143 0.857734 -0.503989
9.19018 15.6672 -1.89353 0.0737997 0.745468 -0.662444
9.22844 15.6342 -1.88285 0.0950914 0.778672 -0.620184
7.33918 17.9236 -4.13788 -0.663556 -0.746246 0.0530209
9.23442 15.6385 -1.86809 -0.478199 0.585106 -0.654963
7.50703 18.0945 -3.8638 0.354647 -0.649545 -0.672545
9.38972 15.7247 -2.6509 -0.625649 0.710366 0.322403
9.22368 15.649 -1.87918 -0.0455559 0.887144 -0.459238
9.27083 15.715 -1.81354 0.40328 -0.273402 -0.873279
9.41713 15.6742 -2.06753 -0.665095 -0.0646231 -0.743957
9.37535 15.6424 -1.72171 0.677602 -0.0250266 -0.735003
8.16185 17.8675 -3.54145 -0.34065 -0.935563 0.0931684
9.37436 15.6689 -1.70327 0.0251599 0.1238 -0.991988
9.27829 15.7444 -1.77549 -0.166771 -0.167842 -0.971605
9.38876 15.7551 -1.73994 0.60082 -0.387688 -0.699081
9.43654 15.6897 -1.70371 0.459306 -0.370337 -0.807396
7.72303 19.6954 -5.34466 -0.195579 0.350321 0.915982
9.17462 16.6095 -2.90949 -0.965594 -0.231013 -0.119423
9.16984 16.725 -3.07358 -0.799333 0.259094 -0.54216
9.25687 16.7298 -2.32741 0.744543 -0.433929 -0.507308
9.25574 16.6606 -2.21362 0.150243 -0.412753 -0.898366
9.47731 15.819 -1.72329 0.564273 -0.257056 -0.78455
9.22075 16.8831 -2.34496 -0.984441 0.0651797 0.163177
9.72615 15.9418 -2.55568 0.247354 0.0311566 -0.968424
9.37833 16.154 -1.93679 0.119352 -0.604819 -0.787368
9.55462 15.9166 -1.71405 0.485378 -0.491051 -0.723379
9.2592 16.9594 -2.37154 0.424796 -0.63955 -0.640722
9.25375 17.1004 -2.44349 0.172597 -0.254269 -0.951608
9.42083 16.6814 -2.10377 0.673816 -0.190729 -0.713859
9.44865 17.1692 -2.91933 0.0848917 0.0934969 -0.991994
9.77949 16.0346 -2.53774 -0.133675 -0.0189021 -0.990845
9.40067 16.8797 -2.18559 0.358104 -0.456145 -0.814673
9.6523 15.8821 -1.64756 -0.00313454 0.224681 -0.974427
9.42855 16.9711 -2.93996 -0.143207 0.435626 -0.888663
9.30033 17.4953 -2.99285 -0.669995 -0.740325 0.0550071
9.29005 17.1614 -2.48866 0.134466 -0.284342 -0.949246
9.704 16.8201 -3.09044 0.494773 -0.838014 -0.23007
9.71951 16.8352 -3.0981 0.494773 -0.838014 -0.23007
9.73737 16.6995 -2.83336 -0.734339 -0.590956 -0.333941
9.46549 16.1839 -1.82495 -0.0392222 -0.94605 -0.321639
9.55483 17.0117 -2.1449 0.630736 -0.179356 -0.754986
9.64369 16.9335 -2.06228 0.568386 -0.175142 -0.803905
9.70284 16.6885 -2.80325 -0.734339 -0.590956 -0.333941
9.62673 16.1564 -1.79369 0.407738 -0.272549 -0.871474
9.61977 15.6524 -2.46565 0.23746 0.970972 -0.0287487
5.93931 19.1134 -5.21947 0.978734 0.153521 -0.136051
9.51731 15.6639 -2.54015 -0.153331 0.976418 -0.15198
9.42919 16.956 -2.25968 0.14567 0.393809 -0.907576
5.4079 19.4483 -5.75901 0.74966 -0.344689 -0.564977
5.75581 19.3105 -6.21332 0.930995 0.22286 0.289105
4.3902 20.5296 -6.68772 -0.676692 -0.285537 0.678643
5.56525 19.3888 -5.50513 0.361095 -0.733884 -0.575348
5.74603 19.1968 -5.45232 -0.398895 -0.0905311 0.912517
5.08914 20.0031 -6.1774 0.903022 -0.185965 -0.387257
5.95481 19.1465 -5.08129 0.978734 0.153521 -0.136051
5.88322 19.3453 -5.10401 0.882237 -0.111275 -0.457467
9.23093 15.7802 -2.777 0.583783 -0.346284 -0.73436
9.2696 15.617 -1.9094 -0.637551 0.547511 -0.541997
9.34066 15.6292 -2.06882 -0.689396 -0.268063 -0.67296
9.22082 15.7151 -1.81346 -0.160722 0.731929 -0.662154
9.39495 15.7757 -2.673 0.764048 -0.208811 -0.610434
9.50426 15.6519 -2.54597 -0.269362 0.956999 -0.107687
7.73821 18.0519 -3.61581 0.307367 -0.682204 -0.663418
9.42228 15.6581 -2.10587 -0.495971 -0.143387 -0.856419
9.25316 15.716 -1.93653 -0.645405 0.76384 -0.00125561
9.27881 15.6931 -1.90388 0.395207 -0.86129 -0.31936
9.36787 15.8283 -2.72207 0.741359 0.318655 -0.590632
9.42008 15.7701 -2.62911 0.0819906 -0.777563 -0.623436
7.75126 18.0564 -3.61104 0.307367 -0.682204 -0.663418
9.34245 15.6738 -1.76545 0.255891 -0.551581 -0.7939
9.37136 15.6667 -2.62596 -0.68997 -0.416459 -0.592033
9.18435 16.541 -3.01763 -0.948177 -0.274882 -0.159375
9.47746 15.7399 -1.69991 0.389236 0.0200681 -0.920919
9.39163 15.914 -1.78816 0.610725 -0.30369 -0.731291
9.48198 15.6568 -2.52209 -0.331562 -0.837156 -0.435013
9.42929 15.745 -1.7219 0.400361 -0.142809 -0.905161
9.52474 15.7221 -1.69047 0.230617 -0.2918 -0.928261
