ply
format ascii 1.0
element vertex 869
property float x
property float y
property float z
property float nx
property float ny
property float nz
end_header
2.08511 1.00558 -0.605967 0.0374605 -0.997082 0.0665087
2.69415 1.01192 0.689314 0.273798 -0.91827 -0.286032
2.17826 0.998929 -0.552581 0.220169 -0.971649 -0.0861556
2.19202 0.998781 -0.521375 0.240077 -0.970531 0.0207935
2.88539 0.0353868 0.961131 -0.968262 0.00730561 0.249832
2.41355 0.963598 0.0935921 -0.297218 -0.84025 0.453477
2.60071 0.953312 0.66071 -0.125077 -0.990707 -0.05343
2.38722 0.934592 0.511881 -0.917724 0.316733 -0.239712
1.83409 0.997429 -0.227151 -0.00688613 -0.809703 -0.586799
1.75307 0.988292 -0.0861018 -0.588725 -0.803227 -0.0907167
2.25262 0.996995 -0.225385 0.451996 -0.84718 -0.279258
2.66635 1.00786 0.380844 -0.123982 -0.992245 -0.00879497
1.7394 1.03022 -0.182673 -0.456397 -0.133396 -0.87972
2.2281 1.00887 -0.639195 0.238933 -0.949057 0.205433
1.97732 0.993445 -0.227525 -0.826642 -0.56134 0.0395069
1.88962 0.990018 -0.310587 0.275934 -0.810192 -0.517155
2.21781 0.985713 0.250007 -0.347051 -0.89945 -0.265602
2.239 0.973944 -0.0773953 -0.541656 -0.0123004 -0.84051
1.77045 0.980322 -0.0746091 -0.588725 -0.803227 -0.0907167
2.00308 1.00374 -0.498787 -0.0666782 -0.920561 0.384866
2.52974 0.985719 -0.183476 -0.84811 0.350019 0.39774
1.91041 1.00739 -0.230474 -0.169834 -0.960749 0.219359
2.15579 1.01349 -0.442573 0.266339 -0.951707 0.152702
1.83763 1.00342 -0.16465 -0.0719066 -0.97502 -0.210156
2.08366 1.01754 0.211247 -0.788046 -0.582302 0.199771
2.81872 1.00578 0.144619 0.296652 -0.885932 -0.356543
2.63001 0.992514 -0.00318879 -0.341342 -0.66487 -0.664404
2.08964 1.02843 0.00525384 -0.00742898 -0.987705 0.156151
1.98754 0.995955 -0.256584 0.180733 -0.818423 -0.545453
2.34194 0.976881 0.036286 -0.347468 -0.671633 -0.654352
2.3546 0.990094 0.719458 -0.128991 -0.964674 0.229707
2.23017 0.9893 -0.508516 0.430631 -0.901776 -0.0368413
2.35767 0.992898 -0.0825895 -0.83694 0.305855 0.453855
1.78998 1.00826 -0.230953 -0.256538 -0.834502 -0.487641
2.62013 0.998933 -0.421413 0.289626 -0.944069 -0.157643
2.56734 0.976365 0.0347765 -0.397917 0.510478 -0.762282
2.54368 0.996971 -0.0202688 -0.654496 0.530435 0.538771
3.10935 0.511029 1.70354 -0.949822 -0.0593304 0.307111
2.63392 1.0117 -0.0476439 0.0600291 -0.638351 -0.767401
3.05768 0.754438 1.70131 -0.936378 0.0384509 0.34888
1.72399 1.07373 -0.10543 -0.886449 0.46238 0.0203245
1.70979 1.09917 -0.119207 -0.558769 0.756908 -0.338922
3.05724 0.509351 1.66289 -0.949822 -0.0593304 0.307111
3.31709 -0.0872426 1.4433 -0.719017 -0.493003 0.48986
2.19045 0.995955 -0.474154 0.266339 -0.951707 0.152702
2.7461 1.00468 0.263565 -0.0612344 -0.994106 -0.0894649
2.25217 1.04524 -0.448271 0.390715 -0.887734 0.243456
2.02626 1.0365 -0.12381 0.253726 -0.88006 -0.401393
2.61349 1.04727 0.815439 -0.527156 -0.832844 -0.168749
1.92248 0.984731 -0.183797 -0.127572 -0.987722 -0.0901706
1.96356 1.04324 -0.093602 -0.643242 0.640875 0.41895
1.93569 0.963634 -0.0347762 -0.771618 0.59895 -0.21416
2.94295 1.05548 0.673333 0.182097 -0.939117 0.291375
2.30054 1.00384 -0.0737172 -0.599002 0.0191458 -0.800519
1.95019 1.07545 -0.133503 0.443791 -0.530372 -0.722326
2.24179 1.03743 -0.522813 0.430631 -0.901776 -0.0368413
2.29353 1.05342 -0.546227 0.237004 -0.945545 0.2231
2.79923 1.0973 -0.69025 -0.527334 0.695115 0.488604
2.644 1.07957 -0.741161 -0.010156 -0.925066 -0.37967
2.82136 1.13031 -0.625134 -0.679268 0.638119 0.36249
2.44786 1.06244 -0.271157 -0.287874 -0.90726 0.306606
2.49899 1.06601 -0.309547 0.206589 -0.876504 0.434813
2.69538 1.10627 -0.790921 -0.527334 0.695115 0.488604
2.56475 1.11357 -0.524108 0.0722635 -0.543894 -0.836037
2.78968 1.09654 -0.305871 -0.0494591 0.30843 -0.94996
2.76705 1.12731 -0.648557 -0.527334 0.695115 0.488604
2.85056 1.1639 -0.319813 -0.772811 0.0125848 -0.634511
2.29288 0.102098 -1.04559 -0.234632 -0.964246 0.123197
2.84075 0.992809 -0.327021 0.313209 -0.88758 -0.33779
2.84135 1.04027 -0.495148 -0.419808 0.871398 0.253826
2.82949 1.01369 -0.481302 0.0989923 -0.995076 0.00495533
2.83876 1.02347 -0.453341 0.139149 -0.984164 -0.109814
2.84773 1.01921 -0.409563 0.139149 -0.984164 -0.109814
2.83287 1.00792 -0.386983 0.0272132 -0.997416 -0.0664834
2.83755 1.00134 -0.324952 -0.949682 -0.312356 -0.023195
2.78157 1.01239 -0.327872 -0.254801 0.144824 0.956087
2.63501 1.01566 0.00339508 -0.215878 0.609603 -0.762746
2.71437 1.04827 -0.690386 -0.527334 0.695115 0.488604
2.7373 0.988342 -0.652103 -0.149411 -0.936822 -0.316291
2.65949 1.06105 -0.530447 -0.200692 -0.885386 0.419302
2.73475 0.998465 -0.369814 -0.0820487 -0.878289 -0.471038
2.54296 1.07168 -0.370426 -0.608508 0.701409 -0.371137
2.72254 0.973832 -0.305425 -0.10875 -0.904328 -0.412753
2.75109 0.985954 -0.242211 0.0255606 -0.915105 -0.402406
2.66005 0.979728 -0.294935 -0.0378772 -0.988028 0.14955
2.57792 0.98437 -0.34893 -0.442612 -0.885993 0.138243
2.84867 1.03311 -0.333586 -0.949682 -0.312356 -0.023195
2.80574 1.043 -0.682633 -0.527334 0.695115 0.488604
2.75917 0.997344 -0.593667 -0.0504117 -0.992155 -0.114399
2.51939 1.01771 -0.368575 -0.684033 -0.728901 -0.0283335
2.9404 1.0829 -0.0302204 -0.402922 0.765099 -0.502273
2.86855 0.954302 -0.141817 -0.857962 -0.499637 0.119429
2.52631 0.973753 -0.23618 -0.694981 0.404058 0.594759
2.50045 0.98253 -0.260665 0.197775 -0.371823 -0.906991
2.58381 1.03587 -0.50894 -0.218 -0.378266 -0.899661
2.63165 1.01222 -0.52746 0.24575 -0.749314 0.614927
2.55294 1.02622 -0.47378 0.0437058 -0.999013 0.00796079
2.79738 1.0681 -0.113621 0.0823408 -0.946463 -0.312134
2.85122 1.03188 -0.0481649 -0.355656 -0.89215 0.278526
2.695 1.01773 -0.303474 0.232219 -0.970368 -0.0667884
2.60888 0.986794 -0.267091 0.242112 -0.944223 0.223213
2.51059 1.00072 -0.396908 -0.0988609 -0.993022 -0.0642939
2.61334 1.04653 -0.101771 -0.786071 0.459712 0.413227
2.51794 0.994686 -0.324927 -0.864417 -0.465486 -0.190018
2.81974 0.936007 -0.283161 0.19631 -0.94667 -0.255497
2.68879 1.06447 -0.417272 -0.00789244 -0.978993 -0.203741
2.70124 1.02177 -0.554986 -0.0863436 -0.994033 0.0666557
2.56381 1.01052 -0.543172 -0.107852 -0.985542 0.130671
3.00329 0.991561 0.4938 -0.283417 -0.873199 0.396483
3.0808 1.08906 0.80727 0.29232 -0.923419 -0.248688
3.08246 1.07667 0.860334 0.319408 -0.930239 -0.180647
2.94967 1.08335 0.536349 0.206258 -0.91205 -0.354431
2.56547 1.07882 0.0204029 -0.522279 -0.373946 0.766413
3.00445 1.05279 0.597115 -0.522108 0.850747 -0.060269
3.09213 1.03457 0.947764 0.305421 -0.95011 -0.0633174
2.38509 1.07152 -0.107141 0.266852 -0.963137 -0.0340234
2.97365 0.965773 0.475938 -0.41143 -0.793661 0.448138
2.39477 1.05762 -0.000978241 -0.58714 0.749191 0.306561
2.30704 1.05362 -0.142021 0.253135 -0.967047 -0.0272606
2.8698 1.01639 -0.259713 -0.695161 -0.480138 -0.534994
2.64782 1.04266 -0.540302 -0.281683 0.0717597 -0.95682
2.72284 1.02014 -0.368567 0.273139 -0.924296 -0.266592
2.52501 1.05525 -0.542728 -0.464005 -0.614876 0.637673
2.85055 0.986486 -0.276528 -0.695161 -0.480138 -0.534994
2.56077 1.02984 -0.416149 -0.0557271 -0.975085 -0.214718
2.89884 1.05582 -0.0192039 -0.402922 0.765099 -0.502273
2.5615 1.04189 -0.473667 -0.716075 0.591473 0.37067
2.86971 0.96774 -0.0893209 -0.396923 -0.486289 0.778444
2.69342 0.975065 -0.030689 -0.366106 0.873063 -0.322067
2.63395 1.06857 -0.0741317 0.196334 -0.980537 0.000212672
2.4746 1.08388 -0.216911 -0.0206964 -0.998744 0.0456393
2.41753 1.06948 -0.218229 0.0394296 -0.999059 -0.0180874
2.26244 1.06923 -0.179861 -0.0754318 -0.995271 -0.0612003
3.03739 1.0493 0.541521 -0.929471 -0.0135098 0.368647
2.80399 1.01774 0.301758 -0.254532 0.829954 -0.496376
2.97962 1.0745 0.714215 0.273375 -0.957394 0.0930725
2.62882 1.05041 -0.489013 -0.0930964 -0.972367 -0.214093
2.56487 1.06983 -0.510914 -0.144346 -0.0235333 0.989247
2.61842 1.06301 -0.429097 0.0415686 -0.998412 0.0380105
2.80577 1.07602 0.00742992 -0.0129349 -0.958117 0.286083
2.70594 1.08237 -0.0794873 -0.173793 -0.930046 -0.323743
2.6423 1.0861 -0.15339 0.0935546 -0.96178 -0.257347
2.91192 1.01889 0.246909 -0.575436 0.817433 -0.0260131
2.59433 1.03668 -0.121345 -0.791566 0.60476 0.0876819
2.63895 0.984978 0.173022 0.313869 -0.630836 -0.7096
2.5745 0.93256 -0.0281501 0.0205937 -0.998967 0.0405042
2.59159 1.06663 -0.230526 -0.666573 -0.689139 0.284196
2.44922 1.06403 -0.335601 -0.0868797 -0.798767 0.595334
2.66487 1.06761 0.0465951 -0.250654 -0.820133 0.514348
2.28832 1.07507 -0.294077 -0.0666474 -0.957609 -0.280254
2.88121 1.07759 0.344444 0.173684 -0.981605 0.0792757
2.98196 1.0151 0.660623 -0.691852 0.719271 -0.0631646
2.94395 1.05794 0.803115 -0.340865 -0.0205333 -0.939888
2.46236 1.07078 0.0134229 -0.184414 -0.898509 0.398338
2.4291 1.04668 0.162871 -0.294835 -0.950036 -0.102486
2.10189 1.03651 0.252806 -0.823606 0.563259 -0.0664315
2.44939 1.05553 0.521968 0.399098 -0.881593 -0.252021
2.26873 1.06057 1.28632 -0.014242 -0.879637 -0.475432
2.57963 1.06989 0.833183 -0.164219 -0.937423 -0.307034
2.2988 1.08018 -0.158948 0.201381 -0.968023 -0.14959
2.4291 1.11824 -0.274543 -0.0907414 -0.981355 0.169436
2.63859 1.06878 0.0439996 0.0315069 -0.628587 0.777101
2.63273 1.08795 0.0655395 -0.00647585 -0.998308 -0.0577777
2.73588 1.06916 0.387248 0.323637 -0.922095 0.212129
2.26926 1.07355 -0.15598 -0.166639 -0.977588 -0.128656
2.65624 1.03703 0.293638 -0.457722 -0.819553 -0.344708
2.95688 1.12214 -0.0438136 0.268516 -0.949486 -0.162407
2.54055 1.07077 -0.00554254 -0.694673 -0.484204 -0.531955
2.96766 1.04378 0.932325 0.217436 -0.972906 -0.0785882
2.99299 1.0694 0.759418 0.307784 -0.94814 0.0793677
2.55371 1.02351 0.160763 0.420198 -0.907389 0.00884552
2.26842 1.07725 -0.275312 0.304233 -0.951564 -0.0443602
2.37166 1.06796 -0.330126 -0.0724722 -0.997368 -0.00199439
2.26871 1.10502 -0.334047 -0.135531 -0.832999 -0.536418
2.28184 1.09735 -0.254098 0.106658 -0.982168 -0.154821
2.2965 1.08413 -0.288772 0.00363784 -0.997701 -0.067679
2.2054 1.06673 -0.257478 -0.446606 0.38879 0.805844
2.61287 1.05043 1.21916 -0.0764205 -0.887744 0.45395
2.15453 1.03305 0.760381 -0.454357 -0.883013 0.117677
3.07471 0.979746 1.68621 -0.473097 -0.719354 -0.508634
3.08971 0.934861 1.63298 -0.396878 -0.430238 -0.810792
1.97072 1.05437 0.0936664 -0.671368 0.738371 -0.0638268
1.98918 1.04346 0.0957679 -0.671368 0.738371 -0.0638268
2.07556 1.01697 0.683278 0.324955 -0.937312 -0.125894
2.56958 1.01787 1.17966 -0.0764205 -0.887744 0.45395
2.50943 1.0275 0.123171 -0.215146 -0.728797 -0.650051
2.25569 1.08475 -0.196671 0.0880712 -0.992953 -0.0792941
2.19585 1.09344 -0.314855 -0.236445 -0.813245 -0.531719
2.1827 1.13764 -0.286073 -0.162686 -0.861692 -0.480646
1.98128 1.06664 -0.14074 -0.647651 0.405006 0.645383
2.32169 1.09506 -0.291236 0.150283 -0.980617 -0.125718
2.01675 1.04761 -0.0693549 -0.8801 0.400368 0.255204
2.96567 1.02337 0.920266 0.298692 -0.953484 -0.0406407
3.00178 1.05294 0.514961 -0.921052 0.0187238 0.388989
3.08805 1.07274 0.93733 0.305421 -0.95011 -0.0633173
3.03321 1.0518 0.623445 -0.477289 0.878738 -0.00387173
2.84612 1.06765 0.494213 0.0672262 -0.877136 0.475513
2.93231 1.05393 0.498545 -0.375315 -0.867778 0.325729
2.91528 1.06171 0.441785 -0.500074 0.851692 0.156676
2.90786 1.04976 0.262075 -0.62404 -0.356519 -0.695319
2.82097 1.05414 0.503739 -0.0360743 -0.861417 0.506615
2.78129 1.06521 -0.00894099 0.175678 -0.908403 0.379396
2.6725 1.06715 -0.0269871 -0.713228 0.566357 -0.412971
2.80308 1.05915 -0.113105 0.0823408 -0.946463 -0.312134
2.34555 0.998845 1.97001 0.0131063 -0.992708 0.119828
2.31432 0.97248 1.7892 -0.0271016 0.0698469 -0.99719
2.88321 0.996166 0.891899 0.316506 -0.9363 -0.152203
2.1399 1.00439 1.26875 0.155964 -0.972986 -0.170216
2.30526 1.00954 1.79866 0.369185 -0.502192 -0.781988
2.23471 0.981989 1.74855 0.322069 -0.872921 -0.366442
2.18756 0.966736 1.38687 -0.485913 -0.872474 0.0517511
2.21695 0.952349 1.54832 0.304455 0.462735 -0.832576
2.15726 1.0072 0.73316 -0.154035 -0.98142 -0.114407
2.0429 1.004 0.673421 -0.659994 -0.74226 -0.116011
2.28983 1.06514 -0.154433 -0.166639 -0.977588 -0.128656
2.10811 1.07696 -0.11112 0.179689 -0.981148 0.0711322
2.00784 1.0541 0.0336271 -0.0807343 -0.973957 0.21187
2.38565 1.07404 0.0110788 -0.534474 -0.54392 0.646907
2.2925 1.03943 0.225951 -0.0339734 -0.997915 -0.0548739
2.24642 0.93734 1.36964 -0.140942 -0.929606 -0.34054
2.90881 1.07678 1.19261 -0.0402673 -0.991891 0.120543
2.92059 1.1066 0.189952 -0.545994 0.658985 0.517329
2.16891 1.05052 0.8814 0.152551 -0.98153 -0.115439
2.85605 1.03258 0.796291 0.0819281 -0.537681 -0.839159
2.6307 1.07846 -0.147872 0.0935546 -0.96178 -0.257347
2.78298 1.05975 0.0228849 0.0976929 -0.803863 0.586737
2.69715 1.02283 0.447803 -0.016802 -0.965185 0.261028
2.75551 1.09451 0.492638 0.0210739 -0.966285 0.25661
2.90046 1.00963 0.900002 0.455684 -0.848398 -0.269393
2.43149 1.04135 0.303847 -0.0937138 -0.982958 0.158148
2.60093 1.06289 -0.167945 0.0532135 -0.8772 -0.477168
2.25733 1.05886 -0.255976 -0.485932 0.860868 -0.150918
2.20824 1.0745 -0.215307 0.481484 -0.870543 -0.101623
2.74819 1.03225 1.23338 -0.0036438 -0.929927 0.367725
2.12729 1.07068 -0.0123875 0.0409917 -0.9869 -0.156037
3.57044 1.96039 3.21831 -0.107514 0.0770623 -0.991212
2.55051 1.06675 0.112182 0.399502 -0.899187 -0.178496
2.08496 1.06675 0.263661 -0.28563 0.50552 -0.814165
3.01145 0.993384 0.379832 -0.696013 -0.432894 0.57286
2.70014 1.02341 0.467909 -0.0185711 -0.806222 0.591322
2.88354 1.05193 0.30187 0.313879 -0.947782 0.0564729
2.57479 1.03791 0.00825392 -0.883593 -0.173751 0.434827
2.9401 1.06461 0.0163892 0.209162 -0.976696 -0.0481306
2.969 1.06069 0.208907 -0.57681 0.759134 0.301672
2.47428 1.07668 -0.0225855 -0.743942 -0.668243 0.00110874
2.05434 1.02187 0.669075 -0.659994 -0.74226 -0.116011
2.05534 1.01478 0.53668 -0.628787 0.740682 0.236681
2.26956 1.06799 -0.119626 0.0629396 -0.996777 -0.049736
2.19714 1.05193 -0.268408 -0.0679482 -0.63006 -0.773568
2.10842 1.04605 -0.171792 0.34318 -0.862196 0.37262
2.10947 1.04432 -0.165392 0.136796 -0.972127 0.190408
2.07558 1.02509 0.246518 -0.481631 -0.559422 0.674595
2.62493 1.11232 0.16102 -0.260987 -0.876124 0.40533
2.68757 1.05505 0.208905 -0.17331 -0.913555 -0.367942
2.19214 1.09165 0.264675 0.0403049 -0.973721 -0.224149
2.42192 1.01975 0.197592 -0.868009 -0.380534 -0.318988
2.48933 1.06251 -0.0299512 -0.252546 -0.967583 0.00167822
2.29668 1.06456 -0.182728 -0.133311 -0.967972 -0.212743
2.8754 1.05986 0.0101793 0.0422986 -0.999021 -0.0129389
2.37097 1.0548 -0.0217194 0.0660191 -0.993969 -0.0875651
2.16891 1.06602 -0.118419 0.0557083 -0.981639 0.182431
2.3352 1.07694 -0.029845 -0.0113402 -0.997696 -0.0668932
2.64333 1.08092 -0.168816 0.0509843 -0.988132 -0.144901
2.9531 1.03936 0.808528 -0.340865 -0.0205333 -0.939888
2.88841 1.04797 0.800996 -0.283738 -0.0237232 -0.958608
2.18719 1.00682 0.655914 0.0920379 -0.978268 0.185799
2.42063 1.01902 0.612979 -0.552144 0.83004 -0.0785567
2.17139 1.04775 -0.050196 -0.142467 -0.906663 -0.39707
2.64546 1.18857 1.02768 -0.356289 -0.896392 -0.263703
2.40978 1.04522 0.719041 0.139991 -0.88044 0.453021
2.75251 0.821085 0.161633 -0.930305 -0.259675 0.259039
2.11172 1.04148 0.313533 -0.868432 -0.190192 0.457878
2.19368 1.02457 0.797738 0.0850945 -0.967912 0.236445
2.87714 1.03235 0.924223 0.438095 -0.825607 -0.355591
2.84585 1.01146 0.467924 0.117431 -0.973622 0.195626
2.88731 1.05529 0.418952 0.0478965 -0.987083 -0.152885
2.35784 1.02564 0.0311384 0.00423126 -0.454416 -0.89078
2.10219 1.10136 0.185238 0.0488538 -0.981874 -0.183132
2.27284 1.06128 -0.095571 -0.526258 -0.846734 -0.0780687
2.28741 1.04082 0.212001 -0.0339734 -0.997915 -0.0548739
2.12887 1.07451 0.271726 -0.576733 0.674556 -0.460818
1.92978 1.0126 0.127028 -0.188338 -0.817222 -0.544681
2.86322 1.04069 0.267441 0.348942 -0.927157 0.136455
2.30942 0.934357 -0.117281 -0.995139 -0.0984237 0.00338457
2.57205 1.09237 -0.188798 0.0694501 -0.976013 -0.206338
2.59176 1.0002 1.21928 -0.0764205 -0.887744 0.45395
2.86964 1.07677 -0.0974193 -0.676799 -0.111356 0.727697
2.42504 1.33327 0.424707 -0.738295 0.536001 -0.409419
2.51364 1.06633 0.724389 -0.202166 -0.893078 0.401921
2.5754 1.09062 -0.00469138 -0.522781 0.852228 -0.0201908
2.53563 1.08264 -0.237365 0.0276937 -0.991262 0.128965
2.52898 1.07875 -0.281621 0.186241 -0.94381 0.273014
2.5535 1.10498 -0.152434 -0.0984559 -0.971803 -0.214255
2.40795 1.11622 0.0314857 -0.809162 -0.570978 0.138715
2.45389 1.10168 -0.16123 0.105954 -0.994222 0.0172318
2.41025 1.08688 0.0946964 0.402911 -0.89095 -0.209456
2.18418 1.08025 0.388184 -0.0585511 -0.643743 0.762999
2.29297 1.0871 0.0434984 0.0360906 -0.99908 0.023157
2.35302 1.09351 -0.128899 -0.0489013 -0.964991 0.257685
2.32381 1.08025 0.0220096 -0.262518 -0.943914 -0.200276
2.24076 1.01901 0.317388 -0.491094 0.724507 -0.483648
2.57054 1.09108 -0.302365 -0.777962 0.627472 0.0324765
2.30186 1.07669 -0.137152 0.298551 -0.938409 0.17394
2.57332 1.07937 -0.292965 -0.811099 -0.41368 0.413506
2.13152 1.08946 0.221657 0.0610232 -0.964583 -0.256623
2.71504 1.10482 -0.236644 -0.492617 0.526342 -0.693031
2.24503 1.0768 0.10363 -0.84675 -0.16371 -0.506175
2.31936 1.07536 -0.0101881 0.000215989 -0.997285 0.0736386
2.33955 1.08892 -0.0686042 -0.0597714 -0.993149 -0.100409
2.13312 1.06125 0.359333 -0.0738166 -0.760392 0.645256
2.92364 1.13151 0.186008 0.362001 -0.704505 -0.610433
2.14252 1.07198 0.239993 0.267885 -0.959737 -0.084512
2.82843 1.12882 0.139906 0.435243 -0.888305 -0.146554
2.13046 1.0871 0.208037 0.0610232 -0.964583 -0.256623
2.31746 1.13422 1.59559 -0.0167706 -0.954926 0.296369
2.58479 1.0945 0.0240003 -0.522279 -0.373946 0.766413
2.55078 1.06949 0.0347321 -0.0705597 -0.559469 0.825843
2.56938 1.06744 0.124514 -0.515401 0.856293 -0.0335255
2.60039 1.02056 0.364814 -0.67065 -0.725106 -0.156363
2.56368 1.07461 0.0951459 0.277362 -0.959856 -0.0417906
2.32994 1.07163 1.73549 -0.214612 -0.79997 -0.560347
2.71818 1.02481 1.05916 -0.986384 0.159319 -0.0408015
2.78738 1.03222 0.144225 0.0969484 -0.975937 -0.195317
2.89606 1.02547 0.800904 -0.283738 -0.0237232 -0.958608
2.52089 1.0665 -0.0722883 0.360439 -0.856066 -0.370453
2.48279 1.08836 -0.0761962 -0.279638 -0.922184 -0.26717
2.46568 1.06618 -0.0662285 -0.829293 -0.551299 -0.0913391
2.53719 1.10111 0.012636 0.285187 -0.918106 0.275226
2.55062 1.07487 0.0212947 0.285187 -0.918106 0.275226
2.6747 1.07768 0.521493 0.0783875 -0.977286 0.196894
2.80169 1.04507 0.342227 0.236773 -0.95066 0.200458
2.56901 1.08852 0.0394169 0.285187 -0.918106 0.275226
2.58737 1.08797 0.154868 0.309154 -0.946837 0.0890168
2.55746 1.08871 -0.173642 -0.257172 -0.933687 -0.249179
2.69403 1.06 0.252209 -0.39134 -0.918303 0.0597716
2.44014 1.08061 -0.162076 0.0296311 -0.999397 0.0180745
2.60316 1.09511 -0.0926825 -0.0895935 -0.990166 -0.107446
2.76424 1.09889 0.144274 -0.103103 -0.976708 -0.188178
2.47787 1.09078 -0.127904 0.0434455 -0.96003 -0.276505
2.19295 1.07407 0.128846 0.0106101 -0.999921 -0.00678099
2.46446 1.08445 -0.100369 -0.101081 -0.976811 -0.188742
2.58009 1.01821 0.0174919 0.116741 0.306698 -0.94462
2.56816 1.0867 -0.0348086 -0.872712 -0.192746 0.448579
2.38755 1.07794 0.247934 -0.183651 -0.88008 -0.437871
2.10167 1.08885 0.185391 0.233219 -0.565114 -0.791363
2.04053 1.07931 0.192033 0.218486 -0.974316 -0.0545149
2.42308 1.09262 0.230077 -0.056605 -0.997866 -0.0325515
2.43269 1.10135 0.198842 0.057855 -0.993639 0.0966191
2.28019 1.09026 0.28397 -0.993593 0.101378 -0.0499602
2.19816 1.06778 0.331104 -0.115495 -0.650322 0.750827
2.36977 1.12127 0.0176694 -0.305431 0.815099 -0.492265
2.43712 1.09845 0.00311958 -0.0330554 -0.839296 0.542669
2.24906 1.08754 0.181107 -0.35098 -0.93464 -0.0571022
2.39529 1.08141 -0.0396459 0.37819 -0.860775 -0.340645
2.18522 1.08538 0.359917 -0.0585511 -0.643743 0.762999
2.14019 1.08671 0.256753 0.0649646 -0.993628 -0.092102
2.50052 1.06565 0.121426 -0.215146 -0.728797 -0.650051
2.52949 1.05853 0.152852 0.195379 -0.916792 0.348309
2.41234 1.08594 -0.00421832 -0.596383 0.794304 -0.115794
2.37362 1.07694 -0.108229 0.0734989 -0.9968 0.0314293
2.37955 1.0735 -0.0292188 0.253915 -0.890374 -0.377838
2.01611 1.03458 -0.0456872 0.375895 -0.924291 -0.0662436
2.4823 1.08608 0.00884387 -0.0688459 -0.861102 0.50375
2.38509 1.07937 -0.00897279 -0.347706 -0.663124 0.662848
2.24552 1.05795 0.715958 0.376431 -0.925719 0.0366569
2.17727 1.04318 0.915059 0.188718 -0.968923 -0.159915
2.684 1.02193 0.732662 -0.431593 0.901907 -0.0170798
2.81076 1.06433 -0.101425 0.0823408 -0.946463 -0.312134
2.26133 1.08262 0.198968 -0.0700867 -0.858624 -0.507792
2.70331 1.04621 0.155467 -0.0516566 -0.975628 -0.213264
2.55769 1.05838 -0.00048128 -0.843941 -0.404477 -0.352367
2.36702 1.06516 0.0594273 0.223166 -0.972633 0.0646711
2.27196 1.06006 -0.0336521 -0.815165 0.518762 0.257668
2.15001 1.07948 0.233228 0.320225 -0.910298 -0.262322
2.47553 1.09577 0.119917 -0.241982 -0.863432 -0.442639
2.41434 1.07729 0.0117305 -0.155083 -0.81552 0.557564
2.09577 1.06586 0.393104 -0.0580948 -0.768758 0.636895
2.09815 1.08772 0.279679 -0.373441 0.41922 -0.827524
2.18755 1.02396 0.344609 0.00128546 0.668052 -0.744113
2.2356 1.08852 0.121019 -0.566065 -0.818974 0.0940861
2.41218 1.12312 0.106201 0.118879 -0.990517 -0.0688788
2.52189 1.12708 0.777601 -0.119539 -0.982241 -0.144612
2.47409 1.08788 0.0298753 -0.00831635 -0.961799 0.273631
2.68379 1.11511 1.30192 0.0736046 -0.958292 0.276152
2.2869 1.06574 0.344963 -0.563944 0.200946 -0.800991
2.21504 1.06574 0.16853 0.0458012 -0.99893 0.00640351
2.64978 1.08168 0.130934 -0.20488 -0.978627 0.0177128
2.21832 1.04392 0.74467 0.213254 -0.940295 -0.265269
2.623 1.07282 0.47024 -0.0711236 -0.89907 0.431989
2.59221 1.06987 0.263761 -0.215541 -0.976453 -0.00903016
2.60108 1.09649 0.327316 -0.201107 -0.958133 -0.203804
1.96177 1.07154 0.115814 0.0116722 0.205414 -0.978606
2.05328 1.03742 0.707496 -0.598951 -0.784077 0.16273
1.95312 1.06692 0.127323 -0.0318544 -0.061017 -0.997628
1.96971 1.09271 0.111078 -0.339005 0.112985 -0.933975
2.0624 1.05662 0.703701 -0.598951 -0.784077 0.16273
2.07616 1.03307 0.724775 -0.282298 0.869862 -0.404534
2.06947 1.05916 0.116999 0.144695 -0.989149 -0.0254622
2.01472 1.0614 0.282252 0.374661 -0.921363 -0.103535
2.4307 1.073 0.370917 -0.883541 0.464142 0.0626602
1.99767 1.09118 0.0611828 -0.252985 -0.955672 -0.150632
2.03544 1.08142 0.228678 0.262873 -0.964434 0.027652
2.13588 1.08469 0.353096 0.121576 -0.868509 0.480532
1.92609 1.06283 0.39436 0.291325 -0.955158 0.0529386
1.96666 1.06831 0.405061 -0.411819 -0.882162 0.228461
2.03536 1.07203 0.2482 0.301553 -0.951979 -0.0529218
2.6717 1.04275 0.727338 -0.431593 0.901907 -0.0170798
2.32046 0.983535 1.59307 -0.831302 0.252778 0.495016
2.24619 0.974121 1.7877 -0.13302 0.863477 -0.486532
2.26871 0.973494 1.67939 -0.683064 -0.721976 -0.110337
2.17615 1.0179 1.56449 0.11796 0.639395 -0.759776
2.15539 1.01519 1.37714 -0.329711 -0.936705 -0.117795
1.99237 1.03496 1.61313 -0.111515 0.851304 -0.512685
2.19341 1.0167 1.52595 0.11796 0.639395 -0.759776
2.02323 0.953695 1.84538 0.439685 -0.686331 -0.579334
2.0939 1.02311 1.27432 0.14393 -0.989433 0.0174808
2.1877 1.04274 0.726408 -0.0175669 -0.870415 -0.492005
2.25657 1.08907 1.89964 0.116798 -0.993146 0.00430265
2.12383 1.02881 1.53341 0.132663 0.814603 -0.564644
2.15859 1.05164 0.799649 -0.343086 -0.908929 0.23694
2.20727 0.966059 1.50754 -0.170854 -0.9117 0.373646
2.18304 0.997509 1.79334 0.0584166 -0.993598 0.096696
2.19682 1.06579 0.860284 0.152551 -0.98153 -0.115439
2.06847 1.0161 1.52956 0.0149485 -0.987297 0.158182
2.20144 1.06997 0.853304 0.13197 -0.988773 -0.0700841
2.24622 1.04067 1.59181 -0.692504 -0.54989 0.466968
1.81738 0.974305 1.60233 -0.189026 0.57619 -0.795157
1.96098 1.0026 1.62416 -0.559773 -0.529677 0.637257
1.82185 0.935242 1.58908 -0.000135283 0.628962 -0.777436
1.76881 0.994944 1.58887 0.0479637 0.761728 -0.64612
1.9394 1.00939 1.50495 -0.392345 -0.880033 -0.267597
1.89938 0.986239 1.55732 -0.490335 0.654356 -0.575665
1.79978 1.0213 1.62331 -0.285577 0.399685 -0.871032
1.90148 1.05515 1.63914 -0.0856219 -0.950478 -0.298764
1.89415 1.0364 0.902082 -0.111216 -0.986407 -0.120966
1.89204 1.04679 0.904308 -0.111216 -0.986407 -0.120966
1.76264 1.03542 0.918171 -0.0462337 -0.973397 -0.224413
1.82453 1.04487 0.918355 -0.0475555 -0.968398 -0.244833
1.91304 1.04757 0.864548 -0.0657779 -0.973997 -0.216803
1.99842 1.04274 0.840548 0.0163672 -0.999615 -0.0224194
1.999 1.04394 0.84761 0.0172146 -0.999288 -0.0335811
2.06371 0.948032 1.94311 0.51038 -0.858587 -0.0483772
1.94554 1.02263 0.87181 0.0300961 -0.999327 0.020959
1.99241 1.06545 0.127431 0.548356 -0.772363 -0.320563
1.91245 1.04795 0.856048 -0.0657779 -0.973997 -0.216803
2.30684 1.08538 2.16523 0.263353 -0.959385 0.101118
2.06229 1.06466 0.602985 -0.70417 -0.683773 0.191311
2.0659 1.08688 0.296716 0.113462 -0.860122 -0.497309
1.90343 1.0482 1.11151 -0.0643635 -0.964535 -0.255989
1.97699 1.05642 0.403144 -0.411819 -0.882162 0.228461
1.87763 1.03379 0.774388 -0.0600259 -0.992505 -0.106449
1.82973 1.07618 1.11147 0.136854 -0.985938 -0.0959069
1.9895 1.03441 1.08464 -0.18933 -0.97894 -0.0763537
2.01361 1.05756 1.01478 -0.260664 -0.838624 -0.478292
1.91121 1.04774 1.32961 -0.0571871 -0.99825 0.0150492
2.0712 0.996096 1.43247 -0.157824 -0.984918 -0.0709106
1.89425 1.07909 1.08329 0.120911 -0.913881 -0.387559
1.88049 1.02433 1.44535 -0.748831 0.632942 0.196561
1.93414 1.04942 1.0661 -0.102361 -0.987585 0.119155
1.78779 1.02055 1.02094 0.122919 -0.991277 0.0475539
1.89391 1.06585 0.280416 -0.0938557 -0.991122 -0.09417
1.8446 1.02204 1.27665 -0.267426 -0.963573 0.00322324
2.44372 1.07595 0.392365 -0.78311 0.617714 0.0718884
2.34861 1.10052 0.174383 0.122561 -0.980782 -0.151808
2.15504 1.06088 0.805682 -0.343086 -0.908929 0.23694
2.21361 1.05728 0.176264 0.0842124 -0.995539 -0.0425383
2.07822 1.09573 0.279876 -0.0330623 -0.973228 0.227453
1.86691 0.909342 1.52896 -0.235568 -0.421356 -0.875767
2.11472 1.05022 0.688423 -0.23536 -0.576627 0.782372
2.13306 1.06919 0.741592 -0.186386 -0.9627 0.196134
3.01955 0.965517 3.0505 -0.0267754 -0.991879 -0.124334
2.0973 1.0692 0.289601 -0.766135 -0.611897 -0.196519
1.89158 1.08219 0.205647 -0.402591 -0.891724 -0.206757
2.21168 1.08842 0.376061 5.68096e-05 -0.759044 0.651039
1.89698 1.06514 0.666411 0.0210745 -0.814944 -0.579156
2.32586 0.958176 1.81312 -0.0271026 0.0698486 -0.997189
2.50022 0.909761 3.69662 0.187799 -0.98104 -0.0478744
1.83828 0.89141 1.49792 -0.466704 -0.357735 -0.808834
1.50418 0.977738 1.66467 -0.552977 0.757943 -0.346033
1.51483 0.931448 1.6445 -0.552977 0.757944 -0.346032
1.9846 0.914124 1.53859 0.365217 -0.911209 -0.190563
1.60059 0.992019 1.61964 -0.511904 0.751432 -0.416299
1.50009 0.878573 1.61237 -0.552977 0.757943 -0.346033
1.9679 0.981109 1.54424 -0.792853 -0.529278 -0.302072
1.52209 1.01717 1.65436 -0.511904 0.751432 -0.416299
1.6009 1.00846 1.61956 -0.511904 0.751432 -0.416299
2.22424 0.992212 1.87212 -0.342687 -0.905387 0.250678
2.28171 0.96877 1.94737 -0.376185 -0.884677 0.275374
1.36423 0.876951 1.73932 -0.552977 0.757943 -0.346033
1.70432 1.02134 0.927172 0.0562251 -0.901639 0.42882
1.77158 1.03647 0.926289 -0.0207128 -0.981178 -0.19199
1.63573 1.0139 0.924695 0.0457475 -0.982942 0.178137
1.82666 1.03677 0.92057 -0.0475555 -0.968398 -0.244833
1.53606 0.982544 1.42028 -0.00320742 -0.981874 -0.189505
1.64557 1.05142 0.957437 0.0149267 -0.9876 -0.156279
1.54482 0.982801 1.5251 0.380352 -0.90296 -0.199989
1.50037 1.01902 1.37723 -0.0676185 -0.988908 -0.132245
1.48886 1.03002 1.42142 -0.0672896 -0.968226 -0.240855
1.73399 0.996301 0.745171 0.107464 -0.984282 0.140146
1.66883 1.01215 0.655959 0.539767 -0.840975 -0.0375877
1.75612 1.02742 0.732852 0.17074 -0.974616 -0.144813
1.64184 0.998796 0.702611 0.539767 -0.840975 -0.0375877
1.67588 1.01626 0.733746 0.359968 -0.912945 0.192236
1.7481 1.03062 0.77503 0.0776963 -0.972578 0.219215
1.69235 1.01238 0.770663 0.359969 -0.912945 0.192235
1.68948 1.03354 0.761083 0.359969 -0.912945 0.192235
1.75041 1.03927 0.792871 0.0853245 -0.987213 0.134649
1.5885 1.02609 0.910004 0.0700727 -0.991352 0.110955
1.84876 1.05138 0.87562 -0.00777045 -0.98605 -0.166268
1.71673 1.04468 0.393814 -0.00922119 -0.998538 -0.0532653
1.84266 1.03292 0.740678 0.184284 -0.949948 -0.252266
1.72107 1.07041 0.524789 0.330407 -0.939262 -0.0928352
1.73633 1.04656 0.532721 0.330407 -0.939262 -0.0928352
1.65505 1.06189 0.931225 0.0149267 -0.9876 -0.156279
1.72709 1.0462 0.468447 0.00397701 -0.996433 -0.0842958
1.74908 1.04903 0.631444 0.312892 -0.929657 -0.194515
1.6871 1.04596 0.907461 0.0423366 -0.998636 0.0305705
1.81764 1.0634 0.242642 -0.283199 -0.955717 -0.0800191
1.98372 0.953596 1.6158 -0.0752966 0.806442 -0.586499
1.92831 1.06432 1.55267 -0.206967 -0.974978 0.0811352
1.72647 1.05114 0.894801 0.0114855 -0.986733 0.161947
1.47902 1.01806 1.19435 -0.0292885 -0.995107 -0.0943599
2.22367 0.987372 1.6777 -0.179532 -0.973095 -0.144413
2.17847 1.03097 1.8676 0.232032 -0.971278 0.0527193
2.04776 1.05396 1.64296 -0.33911 0.849 -0.405221
1.98176 1.04227 0.883871 -0.0301492 -0.997608 0.0622044
2.09897 1.08559 0.244135 -0.1494 -0.982983 -0.10688
2.13996 1.08613 1.71806 -0.0645186 -0.914697 -0.398957
2.17047 1.0225 0.969613 0.106315 -0.993456 0.0417312
2.01261 1.08102 1.72354 0.325491 -0.889982 -0.319355
2.21146 1.03004 0.733536 0.213254 -0.940295 -0.265269
1.95304 1.05715 0.385877 0.291325 -0.955158 0.0529386
1.84396 1.03722 1.1087 0.136854 -0.985938 -0.0959069
2.00685 1.02497 0.796115 0.383672 -0.900611 0.204196
1.67231 1.047 1.14474 -0.00293314 -0.997594 -0.0692602
2.15614 1.03851 0.908798 0.188719 -0.968923 -0.159915
2.03321 1.07316 0.237207 0.134357 -0.990457 -0.0307238
2.41131 1.08007 0.0883815 0.402911 -0.89095 -0.209456
1.60154 1.02563 1.11589 0.0158086 -0.99866 -0.0492873
1.87393 1.02783 0.885854 -0.0830751 -0.980714 -0.176916
1.93371 1.02691 0.980619 0.0211789 -0.984716 0.172877
1.83064 1.0815 0.0172669 -0.599106 -0.221383 0.769456
2.10588 0.99217 1.53774 0.132663 0.814603 -0.564644
1.95711 1.00075 1.20364 0.0671509 -0.974286 -0.215075
2.19162 1.10325 0.197234 0.0374956 -0.972173 0.231242
2.04611 0.998584 1.47412 0.159843 -0.850702 -0.500756
2.16585 1.04163 0.830649 0.0194337 -0.967335 0.252756
2.55282 0.912097 3.00442 0.225245 -0.967827 -0.112138
2.13139 1.07925 0.0535812 0.0571488 -0.976339 0.208559
1.677 0.988298 1.49576 0.0915724 -0.995788 -0.00449129
2.40044 1.08089 0.263742 -0.074945 -0.929989 -0.359867
2.10091 1.05105 1.59542 -0.0779649 0.887945 -0.453293
1.84263 1.07333 0.686252 0.154293 -0.965839 -0.208204
1.87833 1.04619 1.07801 0.193876 -0.979664 -0.0516857
2.21743 1.09006 0.125014 0.0458012 -0.99893 0.00640351
2.27294 1.04232 1.27831 -0.014242 -0.879637 -0.475432
1.81112 1.09087 0.0151464 -0.612369 -0.227343 0.757179
1.99529 1.05635 1.11879 -0.112128 -0.970099 -0.215256
2.02034 1.03814 1.07297 -0.092836 -0.994667 0.0449271
2.32343 1.09044 0.174143 0.0319495 -0.981937 -0.186489
2.07905 1.08723 0.282475 -0.166703 -0.760582 0.627475
1.98092 1.00315 1.1936 0.0671509 -0.974286 -0.215075
1.63418 1.00529 1.2802 -0.0186453 -0.985026 -0.171397
2.11502 0.988807 1.76708 -0.19142 -0.930371 -0.31268
2.27064 1.06753 0.319763 -0.180612 -0.971472 -0.153694
1.84065 1.06672 0.688744 0.218979 -0.932007 -0.288811
2.58957 0.926397 2.9501 0.225245 -0.967827 -0.112138
1.56413 1.0177 1.32135 -0.115929 -0.985679 -0.122466
1.98985 1.03011 1.46554 -0.236904 -0.825575 -0.512155
2.51888 1.0786 0.2408 -0.100133 -0.992361 0.0720616
2.23623 1.05807 1.23321 0.0637575 -0.90566 -0.419184
2.03791 1.07524 0.358985 0.125174 -0.961975 -0.242766
1.98109 1.01886 1.28984 -0.0544006 -0.994468 0.0898515
2.06809 1.02484 1.16351 0.462785 -0.820809 -0.334817
1.90083 1.0499 1.00607 0.278804 -0.958109 0.0655344
1.53385 1.0423 1.23098 -0.0292885 -0.995107 -0.0943599
2.35821 1.07775 0.0972356 0.0652707 -0.957655 0.280423
1.9219 1.03875 1.1932 0.0589167 -0.979999 -0.190078
1.96026 1.06797 1.12829 -0.253054 -0.936826 -0.241496
2.53628 1.08013 0.195048 0.0888079 -0.966785 0.239666
1.99011 1.05486 1.0415 -0.167113 -0.985582 0.0264945
2.24656 1.07815 0.240547 -0.42179 -0.89639 0.136305
2.06543 0.827889 1.83036 -0.484142 0.553188 -0.677931
2.04485 1.09689 0.36881 0.125174 -0.961975 -0.242766
2.09956 1.09872 0.361529 -0.335169 -0.932135 0.13706
2.33644 0.991554 1.7603 0.0566101 -0.566221 -0.822307
2.64953 1.04112 0.606462 0.110015 -0.974973 -0.193195
1.49533 0.924176 1.61252 -0.552977 0.757943 -0.346033
1.6737 0.993889 1.61139 -0.0906206 -0.971226 0.220245
1.87124 1.04108 0.164703 -0.827684 -0.527371 -0.191884
1.98335 1.03548 0.79722 0.0163672 -0.999615 -0.0224194
1.57597 1.06403 1.11214 0.0158086 -0.99866 -0.0492873
1.59895 1.03991 1.22811 -0.0186453 -0.985026 -0.171397
1.88808 0.998954 1.13497 0.0514335 -0.907777 -0.416288
2.44727 1.09679 1.12266 -0.114938 -0.942789 -0.312951
1.84367 1.04282 1.52394 -0.489683 0.855227 -0.169696
1.6447 0.930184 0.685056 0.539768 -0.840974 -0.0375879
2.33479 0.998694 1.78537 0.0566101 -0.56622 -0.822308
1.41433 0.784974 -0.124357 0.302472 0.0433776 -0.952171
1.41696 0.759181 -0.14207 -0.765473 0.289356 -0.574738
1.28861 0.674661 -0.207655 0.168422 0.168325 -0.971237
1.42178 0.942684 -0.192107 -0.955202 -0.129255 -0.266239
0.0499546 0.268586 -0.329361 -0.000257097 -0.997545 -0.0700281
0.544121 0.284621 -0.389769 0.165778 -0.985294 -0.0413859
0.199578 0.216676 -0.239521 0.00120967 -0.998806 -0.0488354
-3.42322 -0.175942 0.188258 0.206598 0.977704 0.0375826
1.21766 0.325543 -0.315754 -0.0272417 -0.694867 -0.718622
1.40863 0.736897 -0.144177 -0.794462 0.259161 -0.549241
0.625797 0.273839 -0.371136 0.165778 -0.985294 -0.0413859
0.824999 0.310871 -0.374748 -0.0305738 -0.962508 0.269523
1.40224 0.968208 -0.118804 -0.853424 0.413782 -0.316942
1.44839 0.860707 -0.198949 0.188133 0.142955 -0.971684
0.931016 0.294986 -0.101269 -0.88561 -0.427299 0.181963
0.9463 0.220577 -0.125229 0.33738 -0.297489 -0.893127
1.41932 1.01952 -0.116322 -0.0799178 -0.991325 -0.104344
0.888577 0.182897 -0.132125 -0.741648 -0.303276 0.598316
0.916297 0.27628 -0.157745 -0.492587 -0.17998 -0.851449
1.24441 0.322516 -0.309379 0.114681 -0.980267 -0.161014
1.17559 0.311938 -0.302911 -0.172242 -0.658537 -0.732572
1.09191 0.31356 -0.452136 -0.202582 -0.874734 0.440228
0.180359 0.256493 -0.37285 -0.00227517 -0.99791 -0.0645776
1.03098 0.30903 -0.434693 -0.243758 -0.783794 0.571182
0.135189 0.229584 -0.399216 0.0671906 -0.990048 -0.123658
0.605837 0.278517 -0.394575 0.165778 -0.985294 -0.0413859
-0.257129 -0.00189282 -0.431783 0.904365 -0.239775 0.353031
-3.09649 -0.0474966 -0.307657 0.331492 -0.942234 0.0480491
1.02897 0.298671 -0.203755 -0.342956 -0.875921 -0.339329
1.19805 1.04152 -0.715669 -0.931994 0.305614 0.194905
1.39071 0.326087 -0.379668 0.106272 0.238376 -0.965341
1.227 0.716727 -0.576154 -0.177412 -0.254144 -0.950755
1.38214 0.341804 -0.378605 0.106272 0.238376 -0.965341
1.2071 1.03719 -0.72882 -0.839067 0.320838 0.439352
1.39249 0.696348 -0.609164 0.115349 -0.315964 -0.941733
1.42781 0.686371 -0.169493 -0.97515 -0.202488 -0.0898944
1.04853 0.297042 -0.234292 0.00911932 -0.991157 -0.132383
-0.164351 0.234086 -0.431905 -0.262634 -0.549176 -0.793366
-0.0775135 0.276042 -0.523011 0.629958 -0.507822 0.587597
-0.314679 -0.0626057 -0.440407 0.329216 0.167892 -0.929209
-0.271074 -0.199436 -0.494049 0.588258 0.0771486 -0.804985
1.37957 0.734828 -0.621476 -0.0478606 -0.119907 -0.991631
1.22546 0.707451 -0.578032 -0.177412 -0.254144 -0.950755
1.20155 0.339872 -0.447211 0.0579557 -0.418849 -0.906205
1.20116 0.322546 -0.442755 0.0579557 -0.418849 -0.906205
1.4167 0.77146 -0.140779 -0.34762 -0.338911 0.874242
1.41502 0.71574 -0.171708 -0.861702 -0.442512 0.248299
1.41451 0.918201 -0.093349 -0.93575 0.0957167 -0.339425
1.40737 0.809666 -0.121945 -0.480985 -0.217538 0.849312
0.978747 0.333945 -0.545822 0.155736 -0.848222 0.506226
1.0369 0.323871 -0.542637 -0.0573387 -0.797498 0.600591
0.922035 0.298341 -0.53091 0.287079 -0.957771 0.0161257
0.908652 0.317398 -0.37645 -0.244206 -0.956872 -0.15735
1.38405 0.738797 -0.611956 0.115349 -0.315964 -0.941733
1.42025 0.728199 -0.167553 -0.847711 -0.318333 0.424324
-2.54209 0.0411615 -1.34571 0.355566 -0.806592 -0.47221
1.1284 0.164128 -0.250308 -0.378556 -0.601848 0.703189
1.08912 0.33125 -0.519671 -0.244476 -0.950613 0.191222
1.00156 0.319103 -0.523779 0.200633 -0.969243 -0.142529
1.28766 0.309321 -0.355691 0.218234 -0.930377 0.294573
1.12426 0.315614 -0.412587 0.0247525 0.453568 -0.890878
1.03298 0.322641 -0.552736 -0.0856222 -0.607818 0.789446
1.1026 1.11457 -0.825817 -0.845063 0.525858 -0.0966563
-1.87555 -0.0170693 -0.881789 0.345128 -0.865833 -0.362241
-3.05948 0.0238166 -1.30711 0.0388456 0.9307 0.363714
-5.12842 -0.520576 -0.834476 0.199516 -0.961441 0.189276
-3.84591 -0.119725 -1.41829 0.0419332 0.998666 0.0301293
-3.29434 -0.166829 -0.916696 0.315606 0.947518 0.0510158
-2.05198 -0.154665 -0.829363 0.349047 -0.787217 -0.508386
-0.348522 0.724569 -1.11944 0.543462 0.126579 0.829836
-6.02589 -0.378826 -1.2798 0.404007 0.910582 -0.0872884
-2.95578 0.119231 0.916674 0.000302039 0.992155 -0.125012
1.06808 0.978666 -0.760563 0.363545 -0.713956 -0.598417
1.10035 0.309598 -0.513588 -0.48039 -0.780201 -0.400639
-1.65442 -0.0845312 0.0515841 0.050167 -0.879203 -0.473798
1.02382 0.315031 -0.403745 -0.112357 -0.618725 0.777532
-0.721617 0.218065 -1.01544 0.455433 0.00995403 -0.890215
-0.275637 0.738443 -1.15721 -0.508802 -0.724619 -0.464809
1.30142 0.30281 -0.369728 -0.393607 0.357861 -0.846764
-0.279905 0.729314 -1.12256 -0.508802 -0.724619 -0.464809
-3.10384 0.130566 -1.52089 0.0404392 0.975726 0.215227
-3.23425 -0.114338 -1.56714 0.149552 0.921521 0.358375
-2.30839 -0.0487404 -1.13502 0.51714 -0.544333 -0.660505
-2.35784 0.00925374 -1.22092 0.478514 -0.591043 -0.649379
-4.63491 -0.754254 -0.83526 0.445006 -0.856705 0.26082
-3.09111 -0.101599 -1.602 0.0404392 0.975726 0.215227
-0.692051 0.27115 -0.990685 0.455433 0.00995453 -0.890215
-3.25679 0.0617908 -1.26951 0.1468 0.942493 0.300261
-6.87775 -0.366984 3.87657 0.0459866 -0.980425 -0.191446
-6.12654 -0.34289 3.2854 0.229619 -0.966193 0.11724
-0.320439 -0.0092171 -0.527976 0.309877 -0.917526 -0.249244
-0.21278 0.163684 -0.418352 0.558207 -0.432815 0.707867
1.10344 0.288339 -0.463239 -0.61144 -0.776807 0.150705
-0.114074 0.220486 -0.494409 0.471982 -0.545726 0.692399
-0.128967 0.514115 -0.872455 0.216827 -0.958199 -0.186658
1.07353 0.338277 -0.424716 -0.402427 0.721044 -0.564046
0.193363 0.27459 -0.602032 -0.0812779 -0.960081 -0.267652
-0.423184 0.34636 -0.855446 0.390335 -0.795954 -0.462705
1.19309 0.314913 -0.44748 -0.250215 -0.457359 0.853355
-5.00587 -0.178593 1.54079 -0.0176547 -0.990737 -0.134644
1.42275 0.742974 -0.154761 -0.794462 0.259161 -0.549241
1.4202 0.738938 -0.142902 -0.794462 0.259161 -0.549241
1.04478 1.03141 -0.720987 0.0330822 -0.971367 0.23527
-4.29255 0.0106361 -1.89264 0.253495 -0.967326 0.00462792
-4.2709 -0.0260329 -2.00821 0.253495 -0.967326 0.00462792
-3.47705 0.291871 -0.22625 0.225592 -0.946304 0.231555
-2.70275 0.261386 -0.30568 0.194199 -0.980135 -0.0402781
0.142251 0.281179 -0.436788 -0.013528 -0.982986 -0.183184
-1.43268 0.324003 -0.974912 0.213674 -0.872893 -0.438636
-0.547768 0.303545 -0.865804 0.509202 -0.344369 -0.788748
0.600914 0.310223 -0.487283 0.0389321 -0.999131 -0.0148655
-0.0724961 0.260884 -0.434803 0.178386 -0.973433 -0.14355
1.11365 0.17569 -0.242738 -0.449376 -0.602439 0.659643
-1.82845 0.000271723 0.112591 -0.143331 0.833343 -0.53385
-0.915259 -0.152034 -0.427909 0.377881 0.924177 0.0557114
-3.87055 0.174478 0.0985515 0.0924985 0.995297 0.0287748
-3.16695 0.0165023 0.910431 -0.0593193 0.966738 -0.248793
1.18815 0.321178 -0.286725 0.0080472 -0.961834 -0.273515
1.10299 0.316649 -0.522346 -0.48039 -0.780201 -0.400639
1.13548 0.338586 -0.46193 -0.466575 0.497233 -0.731483
-2.31343 -0.106725 -1.22571 0.478514 -0.591043 -0.649379
1.18483 0.312425 -0.463131 -0.593851 0.408442 0.693193
1.03084 0.298293 -0.280791 -0.365492 -0.707657 0.604679
1.01116 0.297628 -0.273461 -0.576828 -0.640159 0.507411
-1.77964 0.0913545 -1.46498 0.316271 0.690386 0.650646
-2.88984 -0.347972 -0.923446 0.309933 0.881734 0.35565
-3.06044 -0.177544 -1.08411 0.260363 0.929659 0.260665
-3.4664 -0.0180384 -1.07308 0.0827071 0.993758 0.074861
-0.546478 0.599851 -0.976039 0.122608 -0.508389 -0.852354
-0.236818 0.267908 -0.480507 0.557327 0.0884588 0.825568
-0.140604 0.120842 -0.559571 0.539163 -0.581042 0.609667
-0.951424 -0.0544967 -0.764394 0.966167 0.10918 0.233669
-0.389243 0.290492 -0.78786 0.673853 0.728838 -0.121311
-0.300919 0.237737 -0.922539 -0.15791 -0.930739 0.329831
-0.287423 -0.147821 -0.400683 0.329216 0.167892 -0.929209
-2.6441 0.273438 0.261597 -0.0305799 -0.980413 -0.194565
0.164673 0.303227 -0.392045 -0.013528 -0.982986 -0.183184
-6.035 0.872946 -0.204802 0.328958 0.750858 -0.572712
1.50191 0.426001 -0.5112 -0.842916 0.249386 0.476758
1.55303 0.339667 -0.392416 -0.339871 0.935237 0.0990903
-2.63911 -0.0916723 1.79729 0.884485 -0.451001 -0.119516
-4.85057 -0.295343 2.87567 0.229619 -0.966193 0.11724
0.937356 0.17955 -0.104291 0.60449 -0.362014 -0.709603
-4.53903 0.322073 -0.108031 0.0946859 -0.971916 0.215438
1.28776 0.319069 -0.361943 -0.327863 0.200757 -0.923148
-3.31786 0.235088 -0.0645009 0.225592 -0.946304 0.231555
1.13661 1.06525 -0.82911 0.274645 -0.961083 0.0298356
-0.251823 -0.159916 -0.547168 0.878468 0.226711 -0.420591
-0.75817 0.228313 -0.405264 0.228874 -0.753468 0.616363
-0.304721 -0.0844374 -0.442018 0.329216 0.167892 -0.929209
1.05963 0.312003 -0.255602 -0.7474 -0.573032 0.336197
1.17459 0.311124 -0.292289 -0.172242 -0.658537 -0.732572
-0.75575 0.861057 -1.15806 0.197986 0.296982 0.934132
-3.75224 0.0359736 -1.26042 0.0260029 -0.955776 -0.292944
1.22511 0.3159 -0.469424 -0.208606 -0.468178 0.858657
0.617582 0.305695 -0.478513 0.0389321 -0.999131 -0.0148655
1.01755 0.303193 -0.426086 -0.0673633 -0.794328 0.603743
-0.284906 0.217628 -0.361852 -0.388928 0.174209 -0.904647
1.00529 0.295798 -0.201731 -0.129572 -0.985928 -0.105629
-0.273057 0.230527 -0.394883 0.388928 -0.174209 0.904647
0.949894 0.244423 -0.138334 -0.701213 -0.586945 0.404717
1.02308 0.305331 -0.211295 -0.129572 -0.985928 -0.105629
1.3077 0.308854 -0.373607 -0.393607 0.357861 -0.846764
1.40831 0.327984 -0.380171 0.106272 0.238376 -0.965341
1.10733 0.305532 -0.27753 -0.260866 -0.469662 -0.843425
-0.300056 0.72952 -1.18773 -0.508802 -0.724619 -0.464809
-0.39548 0.718516 -1.14271 0.543462 0.126579 0.829836
-2.78834 -0.121901 -1.43308 0.126973 -0.933831 -0.33442
-1.45658 0.520796 -1.67663 0.540233 -0.772129 -0.334612
1.09881 0.285125 -0.482102 -0.600649 0.745707 0.288343
-0.466331 0.007684 -0.578148 0.595897 -0.731456 -0.331479
1.4492 0.323324 -0.731076 -0.262009 -0.891333 -0.369969
1.45919 0.327104 -0.708728 -0.262009 -0.891333 -0.369969
1.2294 0.341438 -0.729144 -0.0276276 -0.953887 -0.298892
1.16037 1.07381 -0.974057 -0.136019 -0.989482 0.0492268
-1.72317 0.124629 -1.50026 0.98449 0.0172334 -0.17459
-2.64924 0.0813209 -1.65022 0.0440943 0.862069 0.504869
-1.37355 -0.0866771 -1.4083 0.399679 -0.882166 -0.249076
1.36607 0.322978 -0.372956 0.106272 0.238376 -0.965341
-0.340677 0.065907 -1.11222 0.0190424 -0.822581 0.568329
-0.237256 0.132145 -1.03291 0.766375 0.631551 0.117526
-4.84606 -0.324188 -2.22286 0.303873 -0.929488 -0.209075
1.10071 0.180406 -0.260148 -0.393803 -0.549143 0.737131
1.17088 0.320457 -0.309012 -0.0692741 -0.53962 -0.839054
1.11782 0.294674 -0.185428 -0.0868199 -0.974815 -0.205424
1.07958 0.313132 -0.199887 0.257608 -0.856211 -0.447818
0.889964 0.24124 -0.159085 -0.221824 -0.0219407 -0.97484
1.53809 0.330145 -0.417499 -0.339871 0.935237 0.0990904
1.05128 0.350713 -0.492112 -0.0104085 -0.967062 0.254327
-4.19326 0.911083 -3.64762 0.281999 -0.95189 -0.119929
-3.14996 0.683213 -2.73071 -0.171607 -0.256091 0.951298
-2.72505 0.180226 -2.19725 -0.0404026 -0.995871 -0.0812936
-2.6078 0.0619019 -2.20061 0.00801674 -0.995158 -0.0979573
-2.52916 0.214096 -2.12286 0.119106 -0.980042 -0.159159
-3.98596 0.991147 -3.53407 0.281999 -0.95189 -0.119929
-3.07179 0.0972553 -2.34542 0.217965 -0.864252 -0.453387
-3.18968 0.65953 -2.71127 -0.171607 -0.256091 0.951298
-3.83501 0.885495 -2.91647 -0.140449 -0.902022 0.408204
-2.95337 0.39917 -2.82129 -0.226784 -0.0774362 0.970862
-3.44425 1.17202 -3.33706 0.568355 -0.756734 -0.322995
-2.94287 0.171275 -2.25885 0.15161 -0.977898 -0.14398
-3.52695 0.824233 -2.81136 -0.0914232 0.0618619 0.993889
-3.06143 0.204976 -2.30106 0.217965 -0.864252 -0.453387
-1.71818 0.362144 -1.77316 0.108597 -0.91347 -0.392148
-3.68588 0.981005 -2.89029 0.346532 -0.794012 0.49946
-1.81252 0.162958 -1.75605 0.187903 0.926549 0.325884
0.998706 0.288727 -0.531318 -0.355076 -0.920232 -0.164605
-3.66958 0.728071 -2.85235 0.444234 0.745665 -0.496629
-0.426825 -0.035879 -0.662789 0.595897 -0.731456 -0.331479
-3.17453 0.420423 -2.85529 0.273075 0.615297 0.739486
-3.32716 0.661388 -3.10851 0.895934 0.316404 -0.311753
-3.22041 1.09544 -2.72509 0.283376 0.904868 0.317667
1.36593 0.861261 -0.624751 -0.152606 -0.0663034 -0.986061
1.06319 1.10003 -1.10768 -0.207971 -0.968762 -0.135086
0.997842 1.11745 -1.14201 -0.664217 -0.704488 0.250026
1.03088 0.34894 -0.738706 -0.158266 -0.952889 -0.258756
-0.156228 0.0573597 -0.673507 0.685374 -0.611761 -0.394982
-3.56148 0.103883 -1.60935 0.144271 -0.989538 0.00023055
1.37091 0.715657 -0.606931 -0.128774 -0.169909 -0.97701
0.953037 1.10894 -1.14428 -0.490599 -0.23935 0.837869
-3.22961 1.02094 -3.12096 0.999012 0.0433135 0.00994131
-5.3111 -0.00560019 -3.46448 0.190853 -0.914667 -0.356312
0.862978 1.08378 -1.21192 -0.0955662 -0.742699 0.662771
-3.63116 1.12251 -2.83938 0.497545 -0.866282 -0.0447678
-1.51946 -0.368943 -1.71335 0.413927 0.749724 0.516313
1.45302 0.350076 -0.778902 -0.43945 -0.861943 -0.25286
0.824198 1.09917 -1.12089 -0.248836 -0.74898 0.614092
1.27682 0.307622 -0.362335 -0.506583 0.374384 -0.776666
1.03104 0.343244 -0.419954 0.104747 -0.426119 -0.898582
-4.04425 0.72273 -3.81297 0.063252 -0.966875 0.247291
-3.61075 0.661987 -3.3549 0.211818 0.844975 0.491071
-4.1334 0.697543 -3.27348 0.281649 -0.936413 -0.209297
-2.76529 0.411618 -2.77116 0.318434 0.587284 0.744108
-3.82 0.938054 -3.54919 0.0495409 0.888883 0.455449
-3.85041 0.696568 -3.16336 0.00372335 -0.998443 -0.0556626
-1.78229 0.86888 -2.46543 0.5752 -0.268583 -0.772663
-1.5029 1.06332 -2.39143 0.730943 -0.463598 0.500799
-1.41037 1.05579 -2.32396 0.730943 -0.463598 0.500799
-4.48089 0.202955 -3.02541 0.559008 -0.814391 -0.155812
-5.57644 0.181615 -4.07161 -0.157804 0.801715 0.576498
0.72694 0.527748 -1.25087 -0.875825 0.226935 0.425947
1.48508 0.345911 -0.74705 -0.599153 -0.76606 -0.23274
1.01996 1.08029 -1.10509 -0.664217 -0.704488 0.250026
1.06866 1.07808 -1.18605 -0.100776 -0.400729 0.910638
-3.34317 0.0698352 -2.44952 -0.129175 0.757894 0.639461
-5.74012 0.224625 -4.63761 -0.214949 0.810911 0.544261
-4.96493 0.100673 -3.81933 0.261868 -0.879284 -0.397851
1.42855 0.335569 -0.712138 -0.18512 -0.894301 -0.407378
0.108464 0.485103 -0.869489 0.0357171 -0.952523 -0.302365
-0.314743 0.184266 -0.724217 0.147524 -0.299568 -0.942601
1.37274 0.339836 -0.35619 0.106272 0.238376 -0.965341
0.573416 0.309188 -0.496 0.0389321 -0.999131 -0.0148655
-0.809915 0.219787 -1.06709 0.455433 0.00995403 -0.890215
-0.181207 0.26265 -0.418275 0.388929 -0.17421 0.904647
-0.378944 0.249187 -0.785926 0.904517 0.422661 0.0566254
-2.07558 0.1818 -1.711 0.0846244 -0.904877 -0.417177
-0.645665 0.251595 -0.961686 0.455433 0.00995403 -0.890215
1.0588 0.307047 -0.418292 -0.363564 0.710111 -0.602962
1.13822 0.346959 -0.310446 -0.179624 -0.558663 -0.80971
-0.66231 0.170397 -1.02803 0.455433 0.00995423 -0.890215
1.09844 0.338778 -0.409358 -0.331469 -0.394462 0.857046
-0.175962 0.264968 -0.414794 -0.388929 0.17421 -0.904647
1.37876 0.777915 -0.142768 -0.678426 -0.397836 0.617629
1.1845 0.354254 -0.470347 -0.415009 -0.200446 0.887462
0.840352 0.225112 -0.186152 -0.0902241 0.653377 -0.751637
0.883487 0.178485 -0.130638 -0.741648 -0.303276 0.598316
0.895147 0.186811 -0.134562 -0.741648 -0.303276 0.598316
0.0315146 0.32715 -0.632813 0.0975822 -0.921152 -0.376772
1.05647 0.311876 -0.214312 0.201832 -0.976427 -0.076515
1.25411 0.332879 -0.365363 -0.480914 -0.541631 -0.689462
1.2727 0.329115 -0.353322 -0.426655 -0.530102 0.732774
