ply
format ascii 1.0
comment VCGLIB generated
element vertex 685
property float x
property float y
property float z
property float nx
property float ny
property float nz
property uchar red
property uchar green
property uchar blue
property uchar alpha
element face 0
property list uchar int vertex_indices
end_header
0.424861 0.800026 0.343565 0.234334 -0.487163 0.841285 0 255 0 255 
0.435313 0.843823 0.297645 -0.67006 -0.386246 -0.633904 0 255 0 255 
0.465907 0.779345 0.184393 -0.674535 -0.67398 -0.301254 0 255 0 255 
0.47125 0.85542 0.166546 0.817809 -0.28382 0.500634 0 255 0 255 
-0.262679 0.102436 0.585441 0.316291 0.670499 0.671112 0 255 0 255 
-3.83684 0.772857 -2.56693 0.633913 0.299566 -0.713032 0 255 0 255 
-0.158944 0.148846 -0.0294852 0.381451 0.87066 0.310558 0 255 0 255 
-1.06001 -0.227587 0.164271 0.941155 0.337896 -0.00728605 0 255 0 255 
-0.0717075 -0.0385793 0.667362 -0.0155636 -0.315683 -0.948737 0 255 0 255 
-1.93292 0.141956 -0.983662 -0.381943 -0.337952 0.860179 0 255 0 255 
-0.114607 0.165787 -0.0342696 0.207307 0.321111 0.924073 0 255 0 255 
-1.03397 -0.304192 0.180598 0.745862 0.557227 0.364949 0 255 0 255 
-1.02137 -0.294673 0.146501 0.794815 0.540479 0.275956 0 255 0 255 
-1.01064 -0.304634 0.124245 0.914859 0.37675 0.145232 0 255 0 255 
-1.05924 -0.22784 0.13627 0.730919 0.474943 0.490088 0 255 0 255 
-1.05046 -0.172379 0.00934398 0.444738 -0.194913 -0.874195 0 255 0 255 
-1.11158 -0.14463 -0.0545414 0.96732 0.129293 -0.218117 0 255 0 255 
-4.4649 -0.106373 -2.01799 0.57488 -0.641164 -0.508353 0 255 0 255 
-3.35718 -0.0211016 -1.40111 0.516575 0.808062 -0.283172 0 255 0 255 
-1.04486 -0.0763408 -0.0946638 0.518062 -0.522029 -0.677567 0 255 0 255 
-1.00024 0.0951956 0.00226223 0.535634 -0.368689 0.759713 0 255 0 255 
-1.07281 -0.159419 -0.072801 0.930153 -0.153964 -0.333332 0 255 0 255 
-0.0156732 0.0877185 0.425732 0.322261 0.946523 -0.0155566 0 255 0 255 
-2.56336 0.0138663 -1.52373 0.535608 0.0826715 -0.840411 0 255 0 255 
-4.67572 0.113975 -3.76758 -0.155632 0.936585 0.313987 0 255 0 255 
-0.972478 0.0273505 -0.10682 0.627791 -0.763688 -0.15053 0 255 0 255 
-3.57424 -0.0544324 -3.03828 0.609739 0.0855927 -0.787967 0 255 0 255 
-3.55408 0.252118 -2.73291 0.494417 -0.557598 0.666811 0 255 0 255 
-3.29501 0.257842 -2.94211 0.836904 -0.284537 0.467579 0 255 0 255 
-1.91397 -0.0176085 -2.18604 0.189254 0.978006 -0.0876826 0 255 0 255 
0.377358 0.101484 0.373352 0.458025 0.274242 0.845579 0 255 0 255 
0.180335 0.127852 0.144737 0.135205 -0.842448 -0.521537 0 255 0 255 
0.424114 0.50049 0.33028 0.424783 -0.222529 -0.877519 0 255 0 255 
-0.162016 -0.152752 0.737793 0.565241 0.575966 0.590564 0 255 0 255 
0.262841 0.13887 0.943437 -0.108808 0.293723 -0.949678 0 255 0 255 
-0.321415 -0.297815 0.623355 0.132029 -0.529254 -0.838128 0 255 0 255 
-4.21586 -0.173964 -0.909099 0.400734 -0.337866 -0.851622 0 255 0 255 
-0.174973 -0.0624036 0.705173 0.534277 -0.840126 -0.0934675 0 255 0 255 
-4.51615 -0.187281 -1.10638 0.545337 -0.486477 -0.682604 0 255 0 255 
-0.170609 0.0981917 0.71745 0.254174 -0.912027 0.321873 0 255 0 255 
0.0455291 -0.30204 0.654974 0.45422 0.00581966 -0.89087 0 255 0 255 
-1.04991 -0.195449 0.110539 0.989215 0.121251 0.0821719 0 255 0 255 
-0.206627 0.0893229 0.642929 0.867624 -0.0927287 0.488497 0 255 0 255 
-0.969532 -0.0561299 0.063778 0.340999 -0.837007 -0.427947 0 255 0 255 
-3.81247 -0.191446 -1.62269 0.226475 0.95647 -0.184052 0 255 0 255 
-3.1018 -0.113976 -1.25786 0.393026 0.582419 -0.711561 0 255 0 255 
-3.36553 0.0331176 -1.46731 0.692773 0.635326 -0.341213 0 255 0 255 
-0.160092 0.110111 0.474253 0.466341 0.795284 -0.387361 0 255 0 255 
-0.145893 0.097963 0.402168 0.727819 0.665879 0.163966 0 255 0 255 
0.329565 0.489306 0.716941 0.299956 -0.0399731 -0.953115 0 255 0 255 
0.333601 0.480211 0.701486 -0.00807062 -0.105903 -0.994344 0 255 0 255 
0.249089 0.113105 0.568275 0.921828 0.380741 -0.0725934 0 255 0 255 
0.464989 0.121856 0.560503 0.187347 0.418563 -0.888654 0 255 0 255 
0.482774 0.124628 0.554636 0.885313 -0.433821 0.167393 0 255 0 255 
0.470219 0.866737 0.113198 0.221578 -0.742515 -0.63212 0 255 0 255 
-0.327142 -0.162327 0.658958 0.372131 -0.0847979 -0.924299 0 255 0 255 
-0.138045 0.104312 0.459428 0.300503 0.831543 -0.467156 0 255 0 255 
-1.01977 0.0401177 0.00665444 0.632921 -0.475549 0.610954 0 255 0 255 
-1.90957 0.127896 -0.957649 0.505608 0.141412 -0.851095 0 255 0 255 
-0.159353 -0.059561 0.700116 -0.251779 -0.092348 -0.963369 0 255 0 255 
-1.04114 -0.106393 -0.000215828 0.371832 -0.914475 0.15961 0 255 0 255 
-1.14108 -0.0826554 -0.177873 0.578438 0.511624 0.635335 0 255 0 255 
-1.10703 -0.142226 -0.0445111 0.96732 0.129293 -0.218117 0 255 0 255 
-2.37944 -0.208608 -1.02333 0.584128 -0.000185818 0.811662 0 255 0 255 
-0.983718 0.0878614 -0.1346 0.787353 0.0333326 -0.615601 0 255 0 255 
-2.03819 -0.0808798 -0.843597 0.0558956 0.695721 0.716134 0 255 0 255 
-1.82179 -0.271836 -0.724146 0.553897 -0.0584182 -0.830533 0 255 0 255 
-1.67901 -0.117537 -0.631101 0.348372 -0.712344 -0.609264 0 255 0 255 
-0.922099 0.16398 -0.149824 0.823622 -0.563529 0.0638855 0 255 0 255 
-0.956956 0.328856 -0.229359 0.136827 0.680593 0.719771 0 255 0 255 
-1.83279 0.747482 -0.934092 0.831764 0.0409921 -0.553613 0 255 0 255 
-3.01086 0.590741 -1.85783 0.578722 -0.250211 -0.776193 0 255 0 255 
-3.69801 -0.119284 -2.70198 0.529313 0.696659 0.484245 0 255 0 255 
-5.39852 0.116472 -4.1632 0.644982 -0.717567 0.26286 0 255 0 255 
-5.79715 0.0345405 -4.58055 0.451968 -0.775819 0.440261 0 255 0 255 
-3.4256 -0.136932 -2.84087 0.590393 -0.78692 -0.179427 0 255 0 255 
-4.08078 -0.0767653 -3.53197 -0.300243 -0.550389 0.779055 0 255 0 255 
-0.315786 0.104161 -0.117058 0.544895 -0.658918 -0.518573 0 255 0 255 
0.169669 0.0894161 0.337729 0.17884 -0.941298 -0.286311 0 255 0 255 
0.165627 0.103202 0.331696 0.888098 -0.458203 -0.0364951 0 255 0 255 
0.154706 0.101857 0.313018 0.674825 -0.614198 -0.409112 0 255 0 255 
-2.0632 0.224233 -1.85342 0.846185 0.313469 -0.430939 0 255 0 255 
0.13671 0.0934749 0.359664 0.870694 0.252015 -0.422351 0 255 0 255 
-0.114914 0.10585 0.0210248 0.307964 0.197605 -0.930651 0 255 0 255 
-2.22122 -0.194741 -2.09002 -0.593433 -0.147386 0.791274 0 255 0 255 
-0.405444 0.105783 -0.206272 0.419259 -0.114053 -0.900674 0 255 0 255 
0.168163 0.115828 0.330581 0.834362 -0.376103 0.402972 0 255 0 255 
-0.117851 0.153577 -0.0440347 0.207307 0.321111 0.924073 0 255 0 255 
0.489094 0.119699 0.551714 0.885313 -0.433821 0.167393 0 255 0 255 
0.171112 0.0980035 0.311762 0.61967 -0.672203 -0.405158 0 255 0 255 
0.222206 0.795922 -0.18014 -0.330274 -0.317282 0.888961 0 255 0 255 
0.349202 0.799738 -0.0290323 -0.0763144 -0.992633 -0.0941013 0 255 0 255 
0.246872 0.787034 -0.169817 0.627441 -0.679734 0.379842 0 255 0 255 
0.263224 0.886295 -0.174141 -0.473936 -0.834228 0.281867 0 255 0 255 
0.319105 0.816899 -0.0989245 -0.50228 -0.73261 0.459344 0 255 0 255 
0.51756 0.134896 0.393465 0.33783 -0.875549 0.345377 0 255 0 255 
0.258313 0.821524 -0.196705 0.792739 -0.4982 0.351228 0 255 0 255 
-5.29498 -0.199595 -0.99912 0.228494 -0.0903329 -0.969345 0 255 0 255 
-2.68801 -0.114005 -0.229278 0.0226521 -0.639067 0.768817 0 255 0 255 
-4.43671 -0.282848 -0.939649 0.490633 -0.76989 -0.408104 0 255 0 255 
-0.144629 -0.279809 0.658735 -0.267602 0.810698 -0.520729 0 255 0 255 
-0.0794637 -0.10028 0.712851 -0.0739442 0.0198965 -0.997064 0 255 0 255 
-0.118141 -0.178395 0.677361 -0.309469 0.518325 -0.797225 0 255 0 255 
-1.69325 -0.294773 -0.0287519 -0.014103 0.931208 -0.364216 0 255 0 255 
-0.178438 0.0865161 0.679117 0.212664 -0.892678 -0.397367 0 255 0 255 
-0.215689 -0.299307 0.605309 0.0287756 0.955421 -0.293842 0 255 0 255 
-0.147078 0.127064 0.65852 0.336106 -0.777005 -0.532256 0 255 0 255 
-0.0635896 -0.191645 0.681086 0.0794338 0.26799 -0.960141 0 255 0 255 
-0.0191289 -0.0499218 0.664175 0.52572 0.0232299 0.850341 0 255 0 255 
-0.0385126 0.117188 0.683487 0.0207213 0.483343 -0.875186 0 255 0 255 
-1.17018 -0.272359 0.183085 0.288917 0.517819 -0.805227 0 255 0 255 
-1.07221 -0.241399 0.209392 0.482028 -0.711583 0.511174 0 255 0 255 
-0.0127097 0.119322 0.64879 0.847975 0.518084 0.111926 0 255 0 255 
-1.06546 -0.281731 0.130799 0.297273 0.616003 0.7295 0 255 0 255 
-1.09537 -0.115831 -0.00658447 0.606906 -0.710168 -0.356828 0 255 0 255 
-4.22202 -0.215492 -1.81218 0.357117 0.710995 -0.605767 0 255 0 255 
-1.05539 -0.232193 0.0421324 0.454767 0.8878 -0.0706939 0 255 0 255 
-3.30725 -0.241997 -1.40494 0.873544 -0.149549 -0.463202 0 255 0 255 
0.0610794 0.11064 0.613627 -0.0616056 -0.995546 0.071371 0 255 0 255 
-3.68193 -0.230279 -1.68246 -0.160019 -0.343247 0.925514 0 255 0 255 
-3.59492 -0.210336 -1.6785 -0.285131 -0.161622 0.944764 0 255 0 255 
0.0208472 0.127276 0.66327 0.356839 0.930691 -0.0805012 0 255 0 255 
0.463011 0.259895 0.652117 0.689694 0.641369 -0.336108 0 255 0 255 
0.415156 0.494788 0.329315 0.424783 -0.222529 -0.877519 0 255 0 255 
-0.381097 0.179039 -0.219766 0.566708 0.145916 -0.810895 0 255 0 255 
0.135206 0.861709 -0.229043 0.0604586 -0.571514 -0.818362 0 255 0 255 
-1.00393 0.00746071 -0.0358863 0.91147 -0.399621 -0.0975992 0 255 0 255 
-4.01336 -0.133144 -2.9972 0.439254 0.622681 0.647552 0 255 0 255 
-0.117235 0.106801 -0.00326467 0.0463801 0.419272 0.906675 0 255 0 255 
-3.25053 -0.295346 -1.37306 0.58825 -0.480684 -0.650312 0 255 0 255 
-1.01559 -0.264093 0.0213085 0.417161 0.858906 -0.297082 0 255 0 255 
-1.04396 -0.0304071 -0.0838521 0.811364 -0.576856 -0.0944761 0 255 0 255 
-0.895485 0.101076 0.0102809 0.280165 0.660604 -0.696499 0 255 0 255 
-0.165227 0.101874 0.323606 0.364174 0.155009 -0.918341 0 255 0 255 
-1.93307 0.737058 -1.00475 0.761764 0.144666 -0.631496 0 255 0 255 
-2.65385 0.660362 -1.58163 0.662255 -0.388443 -0.640727 0 255 0 255 
-4.99052 -0.105444 -3.43822 0.913889 -0.405937 -0.00470629 0 255 0 255 
-1.86579 0.41326 -0.922353 -0.153639 -0.946151 0.284945 0 255 0 255 
0.312543 0.124562 0.555278 0.592692 0.716258 -0.368364 0 255 0 255 
0.365481 0.119071 0.563861 0.147576 0.654607 -0.741425 0 255 0 255 
-3.60781 0.613148 -3.02952 -0.217266 0.329279 0.918897 0 255 0 255 
-4.39968 0.391074 -3.77486 0.606789 -0.55839 -0.565693 0 255 0 255 
-3.70594 0.164951 -2.79442 0.724952 0.337082 -0.600684 0 255 0 255 
-4.25973 0.210912 -3.72021 0.496576 -0.577987 -0.647568 0 255 0 255 
0.0597645 0.0702779 0.485441 0.586507 0.805438 -0.0853206 0 255 0 255 
-3.82883 0.0642271 -3.03503 -0.264485 -0.832002 0.487669 0 255 0 255 
-1.99968 -0.0627764 -1.86555 0.690022 -0.709077 -0.145187 0 255 0 255 
-3.05114 0.484722 -1.90361 0.628382 -0.248841 -0.737031 0 255 0 255 
-0.333435 -0.17913 -0.273707 0.307225 0.795494 -0.522304 0 255 0 255 
-0.280283 0.267257 -0.341923 -0.00652782 0.376224 0.926506 0 255 0 255 
0.216701 0.786524 0.0143869 0.393628 -0.891009 0.226188 0 255 0 255 
0.360616 0.853824 0.175989 0.83666 0.238112 -0.493257 0 255 0 255 
-0.236632 0.328258 -0.489967 0.710394 0.701835 0.0526174 0 255 0 255 
0.339922 0.822266 0.131015 -0.370403 -0.928601 -0.0223838 0 255 0 255 
0.00242817 0.128181 0.773866 -0.181801 -0.821495 -0.540457 0 255 0 255 
-0.172121 0.12762 0.660924 0.509397 -0.333721 -0.793187 0 255 0 255 
0.037209 0.119815 0.690502 0.122807 0.949795 -0.287762 0 255 0 255 
-2.22723 -0.11687 -1.22737 0.505297 -0.0913209 -0.8581 0 255 0 255 
-1.04679 -0.287034 -0.0260216 0.500637 0.862284 -0.0763454 0 255 0 255 
-0.330751 0.0945255 -0.154416 0.522818 -0.421951 -0.740688 0 255 0 255 
-1.10654 -0.383622 0.130921 0.135876 0.36657 -0.920415 0 255 0 255 
-1.06586 -0.379998 0.12595 0.49989 -0.672267 0.546047 0 255 0 255 
-1.08908 -0.242154 0.140713 0.925445 -0.117723 -0.36013 0 255 0 255 
-1.21511 -0.13335 0.0686267 0.276614 -0.663258 -0.695394 0 255 0 255 
-1.0608 -0.10226 0.0920802 0.686114 0.524121 0.504524 0 255 0 255 
-1.06059 -0.102253 0.0599016 0.445164 -0.803818 0.394596 0 255 0 255 
-1.08645 0.0442054 0.0722908 0.786161 -0.259154 0.561061 0 255 0 255 
-1.18278 -0.335806 -0.0601714 -0.0703315 0.972027 0.224092 0 255 0 255 
-1.25632 -0.102864 0.0154265 0.617614 0.521393 0.588815 0 255 0 255 
-1.10687 -0.177597 -0.0463067 0.930153 -0.153964 -0.333332 0 255 0 255 
-0.066495 0.104048 0.520005 0.489417 0.310377 -0.814946 0 255 0 255 
-3.59746 -0.202967 -1.61861 -0.324838 -0.134356 0.936178 0 255 0 255 
-1.0058 -0.0940081 0.0389703 0.420369 -0.901608 -0.101941 0 255 0 255 
-0.0883066 0.103569 0.472735 0.284341 -0.809944 0.512973 0 255 0 255 
-1.03689 -0.0344906 -0.0348433 0.829104 -0.151493 -0.538178 0 255 0 255 
-0.996733 0.0287062 -0.140787 0.827399 -0.350173 -0.439079 0 255 0 255 
-1.94565 -0.133366 -0.804479 0.300111 -0.774371 -0.557031 0 255 0 255 
-1.50591 0.563097 -0.640574 -0.0298185 -0.96025 -0.277544 0 255 0 255 
-1.95699 -0.221781 -1.03675 0.922461 0.0471297 -0.383202 0 255 0 255 
-2.4363 -0.142726 -1.4073 0.692174 -0.161571 -0.703414 0 255 0 255 
-1.01518 0.331897 -0.268244 0.0191449 -0.789706 -0.613186 0 255 0 255 
-2.31166 -0.046038 -1.24464 0.502689 0.136042 -0.853696 0 255 0 255 
-0.165842 0.110126 0.163356 0.082977 -0.981346 -0.173422 0 255 0 255 
-5.11579 -0.0521118 -4.09096 0.912381 -0.400599 0.0841571 0 255 0 255 
-3.6451 0.54659 -2.95791 0.882463 0.155785 0.443837 0 255 0 255 
-4.06812 -0.135091 -3.51666 -0.300242 -0.550389 0.779055 0 255 0 255 
-0.119383 0.174473 0.022365 0.194728 -0.771635 -0.605525 0 255 0 255 
0.170936 0.0922564 0.358947 0.212906 -0.815472 0.538216 0 255 0 255 
-3.61461 0.620305 -3.04265 -0.217266 0.329279 0.918897 0 255 0 255 
-2.21292 0.846949 -1.28155 0.561098 0.421129 -0.712615 0 255 0 255 
-2.05537 -0.0426417 -1.8201 0.916629 0.351593 -0.190194 0 255 0 255 
0.19972 0.135979 0.150483 -0.0897162 0.190277 0.977622 0 255 0 255 
-1.64889 -0.219424 -1.95344 0.294784 -0.928005 -0.227836 0 255 0 255 
0.251127 0.094035 0.215181 0.0940296 -0.984813 -0.145951 0 255 0 255 
0.483969 0.778898 0.238466 0.569646 -0.79451 0.210372 0 255 0 255 
0.454459 0.0851877 0.285771 -0.121429 -0.827561 -0.548086 0 255 0 255 
-0.0338109 -0.281472 -0.325799 0.134447 0.95861 0.250981 0 255 0 255 
0.501901 0.909665 0.139593 -0.810719 -0.510192 -0.287122 0 255 0 255 
-0.015893 0.259876 -0.475317 -0.0955085 0.631593 0.769395 0 255 0 255 
0.356655 0.826586 -0.0730164 -0.295873 -0.877414 -0.377629 0 255 0 255 
0.452671 0.817881 0.167357 0.073302 -0.923779 -0.375844 0 255 0 255 
0.245356 0.72627 -0.253626 0.782808 -0.531171 0.324144 0 255 0 255 
-0.448273 -0.193969 -0.972335 0.514694 -0.849806 -0.113664 0 255 0 255 
0.50409 0.822631 0.102719 0.978057 0.0832466 0.190984 0 255 0 255 
-0.00910771 0.121373 0.597046 0.515188 0.670179 -0.534268 0 255 0 255 
-0.213785 0.148065 0.502158 0.844679 0.535223 0.00729461 0 255 0 255 
-0.974246 -0.173327 0.131169 0.502456 -0.270862 0.82108 0 255 0 255 
-1.59358 0.648535 -0.706267 0.542271 0.763764 0.350153 0 255 0 255 
-0.153531 0.0118052 0.514521 0.864963 -0.445168 -0.231653 0 255 0 255 
0.422235 0.115902 0.181788 0.432002 0.850094 -0.301188 0 255 0 255 
-0.00589299 0.125837 0.47274 0.0237193 -0.846798 0.531386 0 255 0 255 
-3.26463 -0.00896737 -1.25735 0.411466 0.596236 -0.689346 0 255 0 255 
-1.88326 -0.0431736 -2.38311 0.439568 0.895726 -0.066749 0 255 0 255 
-3.35707 0.011489 -1.52766 0.692773 0.635326 -0.341213 0 255 0 255 
0.394938 0.794312 0.321048 0.362487 0.146181 -0.920453 0 255 0 255 
0.403158 0.482487 0.327968 0.439599 -0.377909 -0.814824 0 255 0 255 
-1.10667 -0.156567 -1.26586 -0.327638 0.431591 0.840465 0 255 0 255 
-1.05409 -0.158945 0.159254 0.324154 0.39243 0.860769 0 255 0 255 
-0.796883 0.0771429 0.302073 0.550474 0.781189 0.294487 0 255 0 255 
0.00676507 0.0880104 0.663378 0.251318 0.800693 -0.54381 0 255 0 255 
-1.14866 -0.0143422 0.107922 0.277967 -0.171252 -0.945202 0 255 0 255 
-1.07688 -0.0571553 0.116948 0.679901 0.356731 0.640686 0 255 0 255 
-0.942485 -0.0577907 0.155442 0.232921 -0.852995 -0.467062 0 255 0 255 
-0.980463 0.0932744 0.167188 0.134914 0.912542 -0.386091 0 255 0 255 
-0.987063 0.11805 0.156781 0.134913 0.912542 -0.386091 0 255 0 255 
-0.417935 0.108138 0.418811 0.378448 0.902551 0.205374 0 255 0 255 
-0.442708 0.106158 0.398635 0.389243 0.917394 0.0829362 0 255 0 255 
-1.97322 -0.324733 -0.455654 0.0864335 0.992661 0.0845736 0 255 0 255 
-0.0292804 0.120459 0.58897 -0.0217774 -0.528715 -0.84852 0 255 0 255 
-1.04036 -0.235662 0.0129948 0.466279 0.8312 -0.302804 0 255 0 255 
-0.0629937 0.0916039 0.532958 0.489417 0.310377 -0.814946 0 255 0 255 
-0.919877 -0.0220672 0.0458918 -0.101758 0.40154 0.910171 0 255 0 255 
-2.91169 -0.141906 -1.06119 0.869514 -0.145934 0.471856 0 255 0 255 
-0.169716 0.120704 0.45257 -0.118349 -0.303933 -0.945314 0 255 0 255 
-2.54333 -0.238712 -0.950481 0.271133 0.84748 0.456361 0 255 0 255 
-0.960794 -0.293624 0.00739729 0.366561 0.836899 -0.40649 0 255 0 255 
-4.40097 -0.123737 -2.13337 0.894586 -0.446862 0.00547581 0 255 0 255 
-2.3393 -0.114837 -0.74077 -0.000438718 -0.97923 0.202752 0 255 0 255 
-1.06285 0.0767334 -0.154769 0.273429 -0.222815 -0.93573 0 255 0 255 
-3.88656 0.067459 -1.82972 0.479843 0.366522 0.797127 0 255 0 255 
-4.15711 0.674207 -3.53721 0.606135 0.454824 -0.652484 0 255 0 255 
-3.06281 -0.216344 -1.87625 -0.377708 -0.332726 0.864078 0 255 0 255 
-3.46426 -0.0744359 -2.22357 0.845844 -0.0944548 -0.525001 0 255 0 255 
-3.12679 0.613974 -1.95265 0.687435 -0.0146405 -0.726098 0 255 0 255 
-1.50715 0.0898861 -0.747596 0.389497 -0.514248 -0.764095 0 255 0 255 
-3.82255 0.878564 -2.56134 -0.499569 0.0587895 0.864277 0 255 0 255 
-3.74966 0.67392 -3.04961 0.578933 -0.303991 -0.756589 0 255 0 255 
-3.57239 0.399951 -3.00809 0.319215 0.412662 0.853119 0 255 0 255 
-0.285348 0.106034 -0.110761 0.223514 -0.772593 -0.594257 0 255 0 255 
-2.26263 0.943169 -1.11606 -0.327102 -0.930218 0.16643 0 255 0 255 
0.281442 0.0673616 0.379775 0.25577 -0.586664 -0.768379 0 255 0 255 
0.485656 0.126746 0.57075 -0.479961 -0.365263 -0.797634 0 255 0 255 
-1.81216 0.339906 -0.88024 0.571457 0.379271 -0.72773 0 255 0 255 
-1.7839 0.0605107 -1.59299 -0.376833 -0.421118 0.825019 0 255 0 255 
-1.75793 -0.120061 -1.58134 -0.290622 0.288968 0.91216 0 255 0 255 
-0.103325 0.12932 -0.0163829 0.956809 -0.0359933 -0.288482 0 255 0 255 
-4.16134 0.585193 -3.73453 -0.253391 -0.50217 0.826812 0 255 0 255 
-0.493402 -0.0952156 -0.392912 0.611825 0.488849 -0.621849 0 255 0 255 
-0.281138 -0.221489 -0.316442 0.601248 0.792822 -0.0996731 0 255 0 255 
0.395619 0.755552 0.322988 0.68019 0.0488572 -0.731406 0 255 0 255 
0.391302 0.608054 0.316725 0.896978 0.383671 -0.219606 0 255 0 255 
0.399556 0.446762 0.326905 0.325689 -0.46005 -0.826003 0 255 0 255 
0.452259 0.102619 0.265468 0.252498 -0.880539 0.40112 0 255 0 255 
0.307463 0.817184 -0.236013 0.913098 -0.149226 0.379453 0 255 0 255 
0.0282681 0.327139 -0.538069 0.675775 0.715012 0.179125 0 255 0 255 
-2.386 0.0376975 -4.17612 0.149135 -0.982299 -0.113347 0 255 0 255 
0.517041 0.0920574 0.258719 0.461137 0.77446 0.433088 0 255 0 255 
-0.122135 0.327284 -0.621413 0.900253 0.359745 -0.245211 0 255 0 255 
0.502827 0.100152 0.225892 0.233072 -0.926516 0.295374 0 255 0 255 
0.507312 0.826978 0.0203403 0.332796 -0.331271 0.882896 0 255 0 255 
0.00476515 0.127777 -0.565943 -0.25648 0.825558 0.502664 0 255 0 255 
0.418607 0.826398 -0.126613 0.164791 -0.944628 -0.283764 0 255 0 255 
0.0770882 0.681489 -0.622084 -0.120049 0.476127 0.871144 0 255 0 255 
0.252085 0.73675 -0.360526 0.94282 -0.165347 -0.289398 0 255 0 255 
0.305488 0.765047 -0.313946 0.385064 -0.576637 -0.720566 0 255 0 255 
-2.05167 -0.075873 -3.78286 0.975857 0.0528128 -0.211931 0 255 0 255 
-0.484063 -0.1669 -1.06852 -0.34835 0.860247 0.372327 0 255 0 255 
0.0765883 0.328859 -0.556618 0.542206 -0.52262 -0.657937 0 255 0 255 
-3.64891 0.149597 -6.50088 0.890029 0.150543 -0.430332 0 255 0 255 
0.164086 0.292279 -0.443764 0.905756 -0.313785 -0.284861 0 255 0 255 
-0.0819185 0.0664183 0.404043 -0.0121528 -0.999869 0.0106626 0 255 0 255 
-0.827367 0.308975 -0.107165 0.833176 -0.365931 -0.414624 0 255 0 255 
-0.908413 0.287433 -0.192975 0.374549 -0.340042 -0.862603 0 255 0 255 
0.404887 0.678989 0.213714 0.796735 -0.384562 0.466183 0 255 0 255 
-0.325561 -0.215226 -0.752867 0.633427 -0.56042 -0.533573 0 255 0 255 
0.258958 0.699529 -0.128596 0.126126 -0.877083 0.463485 0 255 0 255 
0.247019 0.717766 -0.233067 0.989397 0.144676 0.0127306 0 255 0 255 
-0.0795784 0.00890118 -0.709972 0.623125 -0.653075 -0.430359 0 255 0 255 
-0.164261 -0.00262401 -0.857626 0.85888 -0.273514 -0.43303 0 255 0 255 
-2.70934 0.126258 -5.08908 0.511595 -0.814625 -0.273235 0 255 0 255 
-0.986204 0.0873813 -0.135822 0.787353 0.0333326 -0.615601 0 255 0 255 
-1.57196 -0.239518 -0.576521 0.562304 0.462103 -0.685766 0 255 0 255 
0.211349 0.0547265 0.463754 0.367235 0.905001 -0.214735 0 255 0 255 
0.369565 0.119119 0.57909 0.147576 0.654607 -0.741425 0 255 0 255 
-4.23699 0.0357389 -3.40406 0.30052 -0.46594 0.832218 0 255 0 255 
-3.16525 0.561852 -2.503 0.565929 0.624491 0.53827 0 255 0 255 
-3.8926 0.0435964 -3.27631 0.856602 -0.27207 -0.438418 0 255 0 255 
-0.327835 -0.145942 -0.230699 -0.0185457 -0.485912 0.873811 0 255 0 255 
0.399935 0.625818 0.319341 0.792375 0.0734554 -0.605595 0 255 0 255 
0.186457 0.785402 -0.0150407 -0.276884 -0.897714 0.342704 0 255 0 255 
0.220989 0.804589 -0.0459909 0.323674 -0.875603 -0.358546 0 255 0 255 
0.448592 0.819524 0.178438 0.905805 -0.365768 0.213847 0 255 0 255 
0.458218 0.141962 0.532194 0.0720202 -0.135394 -0.988171 0 255 0 255 
0.419529 0.45558 0.353374 0.325689 -0.46005 -0.826003 0 255 0 255 
-0.167401 0.328206 -0.768887 0.856096 0.154992 -0.493028 0 255 0 255 
0.0379875 0.166348 -0.597278 0.562654 -0.659502 -0.498475 0 255 0 255 
-0.930535 0.0461695 -0.114876 0.779921 0.145389 -0.608757 0 255 0 255 
0.390649 0.46899 0.322016 0.260486 -0.458817 -0.84949 0 255 0 255 
0.268323 0.824722 -0.0795174 -0.27092 -0.796956 -0.539874 0 255 0 255 
0.494256 0.807796 0.115616 0.578913 0.0234139 0.815053 0 255 0 255 
-0.222622 0.283789 -0.500105 0.710394 0.701835 0.0526175 0 255 0 255 
0.306024 0.843611 -0.0936008 -0.534898 -0.657866 0.530185 0 255 0 255 
-0.898235 0.346953 -0.182631 0.455499 -0.260142 -0.851379 0 255 0 255 
-2.12632 -0.0342731 -1.14458 0.607944 -0.0899121 -0.788873 0 255 0 255 
-3.83664 -0.0227796 -2.44229 0.546132 -0.754037 -0.364922 0 255 0 255 
-1.92749 0.61956 -1.00253 0.733728 -0.013548 -0.679309 0 255 0 255 
-0.9676 0.423788 -0.341784 0.0330374 0.772488 0.634169 0 255 0 255 
0.307577 0.136284 0.554727 0.310813 0.757166 -0.574538 0 255 0 255 
0.296117 0.136411 0.54518 0.231107 0.164822 -0.958866 0 255 0 255 
-3.09919 -0.0285547 -1.82596 0.525629 0.136134 -0.839751 0 255 0 255 
0.348276 0.111046 0.551315 0.643527 -0.1029 -0.758475 0 255 0 255 
0.471323 0.23277 0.652215 0.689694 0.641369 -0.336108 0 255 0 255 
0.157734 0.0894977 0.367259 -0.0564278 -0.819121 0.570838 0 255 0 255 
0.392884 0.113144 0.550017 0.0681647 -0.996318 -0.0519957 0 255 0 255 
-0.806166 0.0663801 -0.556395 0.519352 0.489345 -0.700582 0 255 0 255 
0.449619 0.12344 0.548285 0.59445 0.739458 0.31596 0 255 0 255 
-3.39428 0.371338 -2.76701 0.726353 -0.318196 0.609231 0 255 0 255 
-1.90643 0.267666 -1.5204 0.579146 0.196819 -0.791108 0 255 0 255 
-0.367914 0.145305 -0.178517 0.445462 -0.10006 -0.889692 0 255 0 255 
0.297329 0.0704851 0.395519 0.280424 -0.450349 -0.847672 0 255 0 255 
-6.40065 1.07147 -5.38974 -0.493719 0.241952 0.835285 0 255 0 255 
0.463373 0.111221 0.246472 0.834699 0.517515 -0.188296 0 255 0 255 
0.236393 0.699795 -0.283889 0.775762 -0.627468 -0.0669148 0 255 0 255 
0.214451 0.794841 -0.341691 0.326261 0.294138 0.898352 0 255 0 255 
0.256227 0.786917 -0.337283 -0.548063 0.168394 0.819311 0 255 0 255 
0.501685 0.117707 0.211788 0.885765 0.44964 0.11508 0 255 0 255 
-0.0639554 -0.0439833 -0.493641 0.742472 0.658744 -0.121622 0 255 0 255 
0.519194 0.125196 0.183312 0.814232 -0.315587 0.487269 0 255 0 255 
0.298798 0.820588 -0.239684 -0.306845 -0.754441 -0.580228 0 255 0 255 
0.149031 0.864199 -0.704859 0.808034 -0.584574 -0.0731781 0 255 0 255 
0.241636 0.807976 -0.410567 0.405676 0.583624 0.703427 0 255 0 255 
0.446099 0.139121 0.550745 0.00250114 -0.190949 -0.981597 0 255 0 255 
0.364857 0.100951 0.38991 0.362781 0.911342 0.194542 0 255 0 255 
0.191553 0.282703 -0.380891 0.756525 -0.179129 -0.628954 0 255 0 255 
-0.0468028 0.177238 -0.597902 -0.604914 -0.0668932 0.793476 0 255 0 255 
0.4914 0.111891 0.211373 0.679054 -0.571059 0.461277 0 255 0 255 
0.196477 0.33706 -0.43229 0.208741 -0.835733 -0.507914 0 255 0 255 
-0.827872 -0.0958988 -2.09934 -0.727227 0.403756 0.555088 0 255 0 255 
-0.0771226 0.219455 0.00604922 0.84096 -0.302093 -0.448917 0 255 0 255 
-0.32037 0.36217 -0.400553 0.202816 0.900405 0.384885 0 255 0 255 
0.374869 0.102347 0.386977 -0.115067 -0.986264 -0.118501 0 255 0 255 
0.259592 0.804438 -0.378319 0.960604 -0.169761 0.220047 0 255 0 255 
0.146568 0.830733 -0.749788 0.719958 -0.656223 -0.2259 0 255 0 255 
0.462644 0.111082 0.262539 0.941993 -0.31873 0.105168 0 255 0 255 
-0.108208 0.382528 -0.658094 0.910321 -0.1439 -0.388082 0 255 0 255 
0.325472 0.886104 -0.169975 0.422498 -0.892122 0.160046 0 255 0 255 
-0.00757325 0.795745 -0.726886 -0.00656087 0.699797 0.714312 0 255 0 255 
0.0500762 0.390502 -0.60857 0.381751 0.759686 0.526444 0 255 0 255 
-0.0957217 -0.00822228 -0.711997 -0.471858 0.698715 0.537725 0 255 0 255 
-0.0118387 0.156536 -0.618769 -0.33407 0.571181 0.749767 0 255 0 255 
0.452156 0.868958 -0.20099 -0.126284 -0.917749 -0.37655 0 255 0 255 
0.513535 0.111129 0.202277 0.782104 -0.333237 0.526561 0 255 0 255 
0.420352 0.828905 -0.117604 0.164791 -0.944628 -0.283764 0 255 0 255 
-0.000650704 0.222251 -0.693402 0.00692585 0.494395 0.86921 0 255 0 255 
0.131595 0.299781 -0.491321 -0.709197 -0.338457 0.618454 0 255 0 255 
0.0112956 0.878392 -1.04663 -0.0183428 -0.976841 -0.21318 0 255 0 255 
0.274474 0.774284 -0.548949 0.640217 -0.73198 -0.233083 0 255 0 255 
0.304873 0.770993 -0.326023 0.321239 -0.728457 -0.605108 0 255 0 255 
-0.772823 -0.0195817 -2.23429 -0.348778 -0.232126 0.908004 0 255 0 255 
-1.2295 -0.0448506 -3.12881 0.901043 0.421745 -0.101255 0 255 0 255 
0.253904 0.817911 -0.650681 0.802736 -0.274005 -0.529657 0 255 0 255 
-0.271286 0.763753 -1.6552 -0.466185 -0.393645 0.792285 0 255 0 255 
0.211247 0.32845 -0.428034 0.208741 -0.835733 -0.507914 0 255 0 255 
-0.493553 1.09903 -2.23032 0.668387 -0.491858 -0.557974 0 255 0 255 
-0.224269 0.867862 -1.65739 -0.525307 0.0945372 0.845645 0 255 0 255 
-0.759731 -0.0495823 -2.07705 -0.0262584 -0.712392 0.70129 0 255 0 255 
0.255198 0.780177 -0.521014 0.485936 -0.873767 0.0199204 0 255 0 255 
-0.396443 0.287409 -1.81009 -0.544671 -0.100462 0.832611 0 255 0 255 
-0.312235 0.789139 -1.84311 -0.0526738 0.605291 0.79426 0 255 0 255 
-0.207429 0.954625 -1.72642 0.512124 -0.827838 -0.228938 0 255 0 255 
0.281913 0.858028 -0.774656 0.122608 -0.985033 0.121148 0 255 0 255 
-0.148118 0.39577 -0.765386 0.864004 0.21857 -0.453568 0 255 0 255 
-0.249301 0.856773 -1.87378 -0.453644 -0.113559 0.883919 0 255 0 255 
-0.082211 0.0294737 -0.735254 -0.32135 0.451272 0.832519 0 255 0 255 
-0.862899 -0.135511 -2.35526 0.805402 -0.582368 0.110337 0 255 0 255 
0.191802 0.172329 -0.550144 -0.370942 -0.725711 0.579436 0 255 0 255 
0.0792957 0.217947 -0.601304 -0.206891 -0.236545 0.949338 0 255 0 255 
0.281922 0.170201 -0.394097 0.66897 0.740934 -0.059134 0 255 0 255 
-0.933076 -0.141518 -2.56663 -0.516888 -0.130428 0.846059 0 255 0 255 
0.450176 0.574084 0.0765401 0.903299 0.394875 0.167703 0 255 0 255 
0.0952324 0.19448 -1.67068 0.791948 -0.599383 -0.116443 0 255 0 255 
0.337273 0.81655 -0.365049 0.0116039 -0.707356 -0.706762 0 255 0 255 
0.0725655 0.202345 -1.82477 0.0188051 0.985775 0.167014 0 255 0 255 
0.0694712 0.16426 -1.65325 0.975142 -0.22146 0.00734955 0 255 0 255 
0.381529 0.876139 -0.421274 0.243361 -0.872796 -0.423086 0 255 0 255 
0.127552 0.0452477 -1.38166 0.922337 0.374203 0.0962661 0 255 0 255 
0.0963128 0.0143525 -1.34295 0.393997 -0.0617056 0.917038 0 255 0 255 
0.467347 0.485353 -0.100503 0.672387 -0.162544 -0.722132 0 255 0 255 
0.338627 1.01455 -0.289894 0.532209 -0.808627 -0.25075 0 255 0 255 
-0.286638 0.330763 -0.116975 0.479855 -0.691769 0.539625 0 255 0 255 
-0.258749 0.312236 -0.0783159 0.238499 0.807284 0.539825 0 255 0 255 
-0.0845231 0.229953 -0.700048 -0.0254726 0.311126 0.950027 0 255 0 255 
-0.96326 -0.0899847 -2.54952 -0.136531 -0.780386 0.610211 0 255 0 255 
0.165129 0.103262 0.284386 0.681967 -0.721002 -0.122794 0 255 0 255 
-0.0843584 0.237423 0.0289978 0.806745 -0.0753593 -0.586075 0 255 0 255 
-0.264321 -0.201311 -0.374525 -0.0449583 0.978121 0.20312 0 255 0 255 
0.431246 0.822457 0.140873 0.174659 -0.782212 -0.598028 0 255 0 255 
0.519815 0.169075 0.341119 -0.421999 -0.788585 0.447271 0 255 0 255 
0.104892 0.802939 -0.735921 0.0111627 -0.93684 -0.349581 0 255 0 255 
0.104032 0.796142 -0.724747 0.123733 -0.928413 -0.350343 0 255 0 255 
0.485464 0.112666 0.229781 0.538027 -0.802427 -0.258142 0 255 0 255 
-0.351821 -0.030156 -1.83137 -0.792228 -0.101852 0.601665 0 255 0 255 
-0.155856 0.263809 -1.50079 -0.0549561 0.360067 0.931306 0 255 0 255 
-0.225225 0.477688 -1.73766 0.871627 0.22854 -0.433631 0 255 0 255 
-0.126004 0.925513 -1.65845 -0.195559 -0.918355 -0.344065 0 255 0 255 
0.198385 0.793615 -0.7138 -0.0163413 -0.967516 0.252279 0 255 0 255 
-0.329721 -0.086992 -1.81287 -0.735833 -0.234512 0.63526 0 255 0 255 
0.0730939 0.840902 -0.99947 0.788336 0.613219 -0.0498864 0 255 0 255 
-0.400111 0.261936 -1.80478 -0.188861 -0.803712 0.564251 0 255 0 255 
-0.162296 0.173932 -1.62712 -0.0275836 -0.0250869 0.999305 0 255 0 255 
-0.195334 0.701029 -1.8716 0.947867 0.0875599 -0.306401 0 255 0 255 
-0.0267194 0.280357 -0.689778 -0.0922235 0.310744 0.946009 0 255 0 255 
-0.354057 0.380747 -1.78497 -0.391557 0.156952 0.906669 0 255 0 255 
-0.337333 0.772084 -1.86309 -0.0526738 0.605291 0.79426 0 255 0 255 
0.296737 0.854411 -0.61141 0.882801 -0.222654 -0.413628 0 255 0 255 
-0.00703096 0.152303 -0.634431 -0.288243 0.771906 0.566637 0 255 0 255 
0.507118 0.128536 0.187473 0.822446 0.14236 0.550741 0 255 0 255 
-0.00914603 0.613508 -1.18324 0.95562 -0.23344 -0.17971 0 255 0 255 
-0.295054 -0.172843 -1.8812 -0.684546 -0.286951 0.670117 0 255 0 255 
-0.061584 0.174907 -1.54991 -0.437052 0.571152 0.694817 0 255 0 255 
-0.186463 0.32315 -1.58382 0.793134 0.523719 0.310896 0 255 0 255 
-0.156474 0.95965 -1.75751 0.132417 -0.990962 -0.021435 0 255 0 255 
0.0230867 0.106529 -1.3935 0.843274 0.311257 0.438187 0 255 0 255 
-0.410635 0.0587311 -2.08024 0.920085 0.00551101 -0.39168 0 255 0 255 
-0.0454771 0.846868 -1.91289 0.994213 -0.026616 -0.104077 0 255 0 255 
-0.305633 -0.0499909 -1.85535 -0.735833 -0.234512 0.63526 0 255 0 255 
-0.018827 0.699677 -1.84463 0.843135 -0.527512 -0.104189 0 255 0 255 
0.828499 0.838346 -0.0549664 -0.368907 -0.859146 -0.354649 0 255 0 255 
0.839279 0.858987 -0.081332 -0.492219 -0.462005 -0.737748 0 255 0 255 
0.820396 0.857611 -0.0512148 0.783662 -0.36562 0.502191 0 255 0 255 
0.790002 0.867915 -0.34899 0.781209 -0.407357 -0.473047 0 255 0 255 
-1.98262 0.149867 -4.86981 -0.27544 0.809374 0.518697 0 255 0 255 
0.166397 0.894243 -1.22829 -0.336403 -0.188264 0.922708 0 255 0 255 
-0.220037 0.297966 -0.467898 0.422424 0.897133 -0.129268 0 255 0 255 
-4.18491 0.528804 -3.63629 -0.478465 -0.085676 0.873917 0 255 0 255 
-0.330289 0.329214 -0.117575 -0.35963 -0.758441 0.543538 0 255 0 255 
-5.09977 -0.0614029 -4.44963 0.855368 -0.468119 0.221834 0 255 0 255 
-0.11966 0.345763 -0.638901 0.910321 -0.1439 -0.388082 0 255 0 255 
-5.1591 -0.141054 -4.57688 -0.412844 -0.616779 0.670182 0 255 0 255 
0.436329 0.106408 0.252653 0.308449 0.865815 0.393984 0 255 0 255 
-0.0407065 0.783348 -0.532394 0.891944 0.166037 0.420556 0 255 0 255 
0.458356 0.0978295 0.25317 0.535724 -0.790628 0.296491 0 255 0 255 
0.483744 0.126006 0.554232 0.885313 -0.433821 0.167393 0 255 0 255 
0.49994 0.121686 0.223081 0.796373 0.453186 -0.400515 0 255 0 255 
0.477033 0.115399 0.562662 0.170335 0.59824 -0.783004 0 255 0 255 
0.378167 -0.0509962 -1.96692 0.0425358 0.422509 0.90536 0 255 0 255 
-0.385052 -0.307025 -1.63464 0.608932 0.282506 0.74121 0 255 0 255 
0.253855 0.194236 -0.408009 0.66897 0.740934 -0.059134 0 255 0 255 
0.00370258 0.842941 -1.55683 0.064974 -0.99406 -0.0873119 0 255 0 255 
0.325481 0.195686 -1.70721 0.0564404 -0.703657 0.708295 0 255 0 255 
0.226577 -0.000986189 -2.36543 0.796818 0.591609 -0.122795 0 255 0 255 
0.411754 0.757079 -1.94115 0.661358 -0.680853 -0.314714 0 255 0 255 
0.399292 0.723953 -1.92252 0.0936402 -0.985516 0.141386 0 255 0 255 
0.41891 -0.0153513 -1.94473 -0.494111 0.575332 0.651803 0 255 0 255 
0.34989 0.190063 -1.65394 -0.665012 0.431521 0.609548 0 255 0 255 
-0.26235 -0.307837 -1.86364 -0.842223 -0.0517526 0.536639 0 255 0 255 
-0.395838 0.0836957 -1.96433 0.980461 0.170771 -0.0976347 0 255 0 255 
0.459703 0.868927 -2.04358 0.59657 0.447137 0.666463 0 255 0 255 
-0.260336 -0.126838 -1.79343 -0.548445 0.1171 0.827947 0 255 0 255 
0.270617 0.0159335 -1.95597 0.985397 -0.0859749 -0.146975 0 255 0 255 
-0.2585 -0.23238 -1.75279 -0.51191 0.103233 0.852814 0 255 0 255 
-0.285571 0.205717 -1.67947 -0.169403 0.763802 0.622823 0 255 0 255 
0.284959 -0.0137496 -1.97327 0.998478 0.0259474 -0.0486647 0 255 0 255 
0.256484 0.825661 -0.808267 0.220241 -0.950293 0.220086 0 255 0 255 
0.253121 0.834767 -0.884053 0.306556 -0.951321 -0.031811 0 255 0 255 
0.225665 0.829833 -0.752047 0.3159 0.768303 0.556702 0 255 0 255 
0.226519 0.823079 -0.856713 0.545999 -0.83335 0.0860985 0 255 0 255 
0.125626 0.837474 -0.723467 0.405071 -0.847707 0.342505 0 255 0 255 
0.287624 0.315502 -0.0739493 -0.0521075 -0.983268 -0.174553 0 255 0 255 
0.381509 0.0950731 0.391893 0.402132 0.914611 0.0421474 0 255 0 255 
-0.000295877 0.00401527 -1.43686 -0.709035 -0.158213 0.687196 0 255 0 255 
0.336271 0.859979 -0.828577 0.218171 -0.967305 -0.129317 0 255 0 255 
0.27705 0.810866 -0.0374434 0.103201 -0.86081 -0.498353 0 255 0 255 
0.451408 0.777297 0.233597 0.130524 -0.898903 -0.418254 0 255 0 255 
0.403911 0.850573 -0.393739 0.654493 -0.747397 -0.114181 0 255 0 255 
-0.189762 0.696572 -1.71683 -0.633539 -0.730149 0.25595 0 255 0 255 
0.214821 0.0260497 -2.1489 -0.0271716 -0.987525 0.155099 0 255 0 255 
0.490182 0.86931 -2.10278 0.566556 0.373196 0.734669 0 255 0 255 
0.174122 0.111644 0.311554 0.873474 -0.48198 -0.068831 0 255 0 255 
0.286121 0.883229 -0.299414 -0.276763 -0.960766 0.0181618 0 255 0 255 
-2.08896 0.0745459 -3.75631 0.208264 -0.973754 -0.0918131 0 255 0 255 
-0.230367 0.285952 -1.70592 -0.450356 0.348771 0.821912 0 255 0 255 
-0.889797 -0.135603 -2.1665 0.960312 -0.105552 0.258185 0 255 0 255 
0.585587 0.895606 -0.556218 0.313525 -0.860881 -0.400732 0 255 0 255 
-0.794836 -0.00976315 -2.01625 0.473894 0.864669 -0.166652 0 255 0 255 
0.339494 0.127435 -1.63966 0.887324 0.0162884 0.460859 0 255 0 255 
0.481091 0.821396 0.138364 0.697496 -0.308406 0.646827 0 255 0 255 
-0.107714 0.130459 -0.0181783 0.956808 -0.0359934 -0.288482 0 255 0 255 
-0.0317563 -0.32591 -1.549 -0.698229 0.41298 0.584742 0 255 0 255 
0.353237 0.176703 -1.72835 0.320972 -0.941524 0.102519 0 255 0 255 
0.547039 0.796918 -1.87858 -0.743654 -0.547276 0.384014 0 255 0 255 
0.275439 0.20288 -1.64766 0.515229 0.0756731 0.853705 0 255 0 255 
-0.457725 -0.200784 -0.899172 0.514694 -0.849806 -0.113664 0 255 0 255 
-0.258166 0.097731 -0.107697 0.454014 -0.440842 -0.774293 0 255 0 255 
0.359844 0.82549 0.100998 0.265256 -0.851147 0.452977 0 255 0 255 
-0.818772 -0.205455 -2.17488 0.792583 -0.573163 -0.208078 0 255 0 255 
0.192034 0.261306 -1.81285 0.018095 -0.995507 -0.0929473 0 255 0 255 
0.359279 0.165737 -1.75936 0.330986 -0.93906 0.092811 0 255 0 255 
-2.52723 0.123993 -4.60426 -0.140435 0.946227 0.291431 0 255 0 255 
0.219135 -0.0815903 -2.01556 0.954672 -0.257309 -0.149643 0 255 0 255 
-0.108728 0.165156 0.0304993 0.194729 -0.771634 -0.605526 0 255 0 255 
0.0537822 0.839585 -0.776529 0.420726 0.779289 0.464433 0 255 0 255 
0.742938 0.86281 -0.387202 0.457549 -0.55631 -0.693663 0 255 0 255 
-2.52722 -0.174867 -4.65915 -0.140435 0.946227 0.291431 0 255 0 255 
0.347385 0.0761808 -1.61262 0.948391 0.27202 -0.162972 0 255 0 255 
0.280874 0.0407451 -1.87708 0.980963 -0.0946209 -0.169585 0 255 0 255 
0.169057 0.241709 -1.48693 0.0152996 0.824764 0.565271 0 255 0 255 
-0.200477 -0.241912 -0.327278 0.183555 0.956713 0.22585 0 255 0 255 
0.279495 0.836199 -0.152279 0.884309 0.0129079 -0.466723 0 255 0 255 
0.864402 0.836804 -0.222509 0.709431 0.320346 0.627762 0 255 0 255 
-0.235456 -0.219632 -0.400533 0.0660444 0.828342 0.556316 0 255 0 255 
0.234883 -0.166672 -2.62335 0.885238 0.407693 -0.223921 0 255 0 255 
0.546565 0.823567 -0.19641 0.040229 0.46893 0.882319 0 255 0 255 
-0.0777541 -0.00594425 -0.472468 0.701248 0.284537 -0.653674 0 255 0 255 
0.200549 -0.169598 -1.66677 0.776355 -0.446388 0.444984 0 255 0 255 
-0.276971 -0.0725192 -0.223539 0.955629 -0.28828 0.0605548 0 255 0 255 
-0.0248883 -0.304825 -1.55502 -0.695358 0.35055 0.627369 0 255 0 255 
0.439522 0.916526 -2.03407 0.677852 0.607493 0.414088 0 255 0 255 
-1.76408 -0.0125884 -2.79438 0.125248 -0.893118 0.432034 0 255 0 255 
-0.286083 -0.0600107 -0.204444 0.806954 0.573793 0.139951 0 255 0 255 
0.393599 0.789179 -0.37511 0.836852 0.173299 0.519274 0 255 0 255 
-0.277186 -0.0743277 -0.233879 0.955629 -0.28828 0.0605548 0 255 0 255 
0.82453 0.826817 -0.511662 -0.130701 0.229166 0.964573 0 255 0 255 
-0.277465 -0.178035 -0.235078 0.358691 0.810176 -0.463633 0 255 0 255 
-0.0344861 -0.0420515 -0.475262 0.398233 0.695272 0.598338 0 255 0 255 
-0.26791 -0.221147 -0.344646 0.333992 0.930046 -0.153176 0 255 0 255 
0.348327 0.85097 -1.71831 -0.058464 -0.996661 0.0570001 0 255 0 255 
-0.0761703 -0.0267846 -0.482884 0.750404 0.478612 -0.455878 0 255 0 255 
0.048933 -0.287905 -1.50633 -0.797055 0.268467 0.540952 0 255 0 255 
-0.220107 -0.202207 -0.389065 0.00571602 0.909836 0.414929 0 255 0 255 
0.375801 0.931028 -2.07227 0.596469 0.550582 0.584025 0 255 0 255 
-0.27033 -0.213817 -0.319123 0.333992 0.930046 -0.153176 0 255 0 255 
0.49908 0.840164 0.0411265 0.740058 -0.312329 -0.595622 0 255 0 255 
-0.20594 -0.220171 -0.404759 0.0215736 0.903749 0.42752 0 255 0 255 
-0.0982687 0.11759 -0.461533 0.683721 0.198797 -0.702144 0 255 0 255 
-0.0926293 0.119675 -0.441724 0.683721 0.198797 -0.702144 0 255 0 255 
-0.0191562 -0.347941 -1.46393 -0.600356 0.412065 0.685401 0 255 0 255 
-0.162189 -0.157544 -0.445881 -0.14173 0.896329 0.420128 0 255 0 255 
0.31873 0.879209 -1.74065 0.510064 -0.841777 -0.176765 0 255 0 255 
0.401465 0.721439 -0.185053 -0.52924 -0.367328 0.764837 0 255 0 255 
0.341033 0.855509 -1.54216 -0.805183 -0.584713 0.0989538 0 255 0 255 
0.287832 0.834709 -0.135473 0.869539 0.460449 -0.178572 0 255 0 255 
0.115419 0.435075 -0.207409 0.663449 0.645902 0.377685 0 255 0 255 
0.00127256 0.832155 -0.697956 0.571321 -0.428012 -0.700284 0 255 0 255 
0.157442 0.323421 -0.685176 0.648054 -0.0374889 0.760671 0 255 0 255 
-0.220625 0.427991 -1.68574 -0.826723 0.161444 0.538948 0 255 0 255 
-0.154901 0.342739 -1.67274 0.829525 -0.339714 -0.443264 0 255 0 255 
-0.109395 0.2759 -1.65937 -0.289914 -0.40095 0.869016 0 255 0 255 
-0.0851707 0.238612 -1.59393 -0.435323 0.617254 0.655356 0 255 0 255 
0.0442411 0.137412 -1.40211 0.662461 0.644243 0.382226 0 255 0 255 
-0.0364477 0.161222 -1.48802 -0.542871 0.129321 0.8298 0 255 0 255 
0.218414 0.107011 0.176472 0.266565 -0.736751 -0.621403 0 255 0 255 
-0.248267 0.35376 -0.551006 0.902399 0.259916 -0.343685 0 255 0 255 
0.176899 0.100006 0.379754 0.793744 0.598249 -0.109859 0 255 0 255 
0.160141 0.117312 0.38917 0.486818 0.858771 -0.159754 0 255 0 255 
0.242908 0.80529 0.0809868 -0.605164 -0.49069 0.626897 0 255 0 255 
0.38575 0.102397 0.385685 0.7725 -0.00377972 0.635004 0 255 0 255 
-0.926563 -0.0421368 -2.09877 0.903244 0.222348 0.36703 0 255 0 255 
0.151405 0.257641 -1.63299 0.0998333 -0.0233998 0.994729 0 255 0 255 
-0.226241 0.350941 -0.867942 0.856096 0.154992 -0.493028 0 255 0 255 
-0.100474 0.265024 -0.703401 0.189371 -0.0942445 0.977372 0 255 0 255 
0.347078 0.167171 -1.58317 0.657662 -0.737112 0.15539 0 255 0 255 
-0.660725 -0.124078 -2.08692 -0.561726 0.194585 0.804115 0 255 0 255 
-0.0289128 0.730415 -1.94691 0.933717 -0.222312 -0.280625 0 255 0 255 
0.107106 0.282041 -1.681 0.654379 0.740792 0.15171 0 255 0 255 
-0.337544 -0.0490058 -1.90309 0.863073 0.395831 -0.313724 0 255 0 255 
0.172316 0.260885 -1.62304 0.426048 0.727195 0.538211 0 255 0 255 
0.0477442 0.609174 -1.18745 -0.125752 0.197299 0.972245 0 255 0 255 
-0.292961 0.284625 -1.81491 0.564077 -0.78752 -0.248253 0 255 0 255 
0.0303089 0.283192 -1.7951 0.0589126 -0.427317 0.90218 0 255 0 255 
0.335118 0.776063 -0.212674 0.534945 0.664742 0.52149 0 255 0 255 
-0.0265842 0.0263739 -1.47695 -0.520074 0.00622842 0.854098 0 255 0 255 
-1.15783 -0.0659875 -2.81614 0.758051 0.622113 0.195794 0 255 0 255 
0.289555 0.843577 -0.828212 0.136273 -0.924879 0.355004 0 255 0 255 
-0.874967 -0.115251 -1.60332 0.0153086 0.995337 0.0952394 0 255 0 255 
0.294645 0.205758 -1.66257 0.49487 0.868308 -0.0338227 0 255 0 255 
0.0511396 -0.1108 -1.40199 0.280127 -0.597318 0.751492 0 255 0 255 
-1.15638 -0.0959905 -2.47465 0.257098 -0.740794 0.620584 0 255 0 255 
0.271663 0.188605 -1.70122 -0.254128 -0.871532 0.419345 0 255 0 255 
0.139947 -0.0614949 -1.44182 0.0367687 0.554833 0.831149 0 255 0 255 
-0.179297 0.156389 -1.69599 -0.257932 0.036072 0.96549 0 255 0 255 
0.216885 0.17372 -1.63476 0.811068 -0.556469 -0.180306 0 255 0 255 
-0.0935095 0.16766 0.0137192 -0.0760528 -0.757689 0.648169 0 255 0 255 
-0.212686 0.189136 -1.66179 0.147357 0.964875 0.217489 0 255 0 255 
0.0129304 -0.0883253 -1.48687 -0.285978 -0.0265396 0.957869 0 255 0 255 
0.0267316 0.00448036 -1.37459 -0.395689 -0.197187 0.896966 0 255 0 255 
-0.077361 0.807527 -1.94157 0.290694 0.918463 0.268183 0 255 0 255 
0.174041 -0.0739922 -1.31512 0.424522 0.901918 0.0795265 0 255 0 255 
0.297177 0.0780945 -1.72035 -0.449165 0.0873996 0.889164 0 255 0 255 
0.30078 0.822171 -0.871564 0.363203 -0.88676 -0.285903 0 255 0 255 
0.128333 0.835438 -1.75525 0.392857 -0.907825 -0.146685 0 255 0 255 
0.0786089 0.0933382 -1.41111 0.722793 -0.107544 0.682645 0 255 0 255 
-0.0543835 -0.0389399 -0.477188 0.713531 0.517586 -0.472206 0 255 0 255 
-0.0307014 0.130291 -1.48518 -0.543181 0.127054 0.829947 0 255 0 255 
-0.187406 -0.15695 -0.480337 0.523798 -0.84819 0.0787973 0 255 0 255 
-0.0645968 -0.0133264 -0.498158 0.784794 0.6178 -0.049213 0 255 0 255 
0.222118 -0.107587 -1.59375 -0.0541692 -0.99681 0.0586116 0 255 0 255 
-1.21368 -0.228308 -2.59822 0.860784 -0.330973 0.386663 0 255 0 255 
0.0536057 0.857713 -1.00504 0.0368438 -0.976521 -0.212248 0 255 0 255 
0.14901 -0.0134976 -1.42929 -0.300486 -0.3216 0.897932 0 255 0 255 
0.263097 0.836362 -1.10267 -0.736768 -0.673465 -0.0601451 0 255 0 255 
-0.0377392 0.263698 -1.59779 -0.275878 0.558089 0.782578 0 255 0 255 
-1.51871 0.00884101 -1.34267 0.319994 -0.767608 0.555321 0 255 0 255 
-0.110641 0.225931 -0.695619 -0.0254727 0.311126 0.950027 0 255 0 255 
0.216769 0.136383 0.240619 -0.0842105 -0.927529 0.364142 0 255 0 255 
0.486949 0.109336 0.555601 0.669104 -0.204142 -0.714581 0 255 0 255 
0.268512 0.0788005 0.366071 0.0728708 -0.740418 -0.668185 0 255 0 255 
-0.0132888 0.326175 -0.716822 0.114352 0.0616196 0.991527 0 255 0 255 
0.147927 0.175985 -0.492976 -0.286217 0.201527 0.936732 0 255 0 255 
0.129705 0.234846 -0.542901 -0.734954 -0.293569 0.611278 0 255 0 255 
0.317671 -0.174444 -2.36288 -0.951316 -0.180342 0.24995 0 255 0 255 
0.361127 -0.178568 -2.21836 -0.908812 0.0257891 0.416408 0 255 0 255 
-0.811203 -0.140583 -2.0819 0.76792 -0.487074 -0.416003 0 255 0 255 
-0.764101 -0.0851389 -2.23308 0.92543 -0.201763 -0.320737 0 255 0 255 
0.0108192 -0.291732 -1.5111 -0.797055 0.268467 0.540952 0 255 0 255 
0.287589 -0.241756 -1.72257 0.964918 0.0340541 0.260333 0 255 0 255 
-0.0904089 0.493233 -1.18384 0.557722 0.316052 0.767501 0 255 0 255 
0.742087 1.18811 -0.748267 0.423225 0.603696 0.675598 0 255 0 255 
0.514848 0.483224 0.0288026 0.998554 -0.0405021 -0.0353537 0 255 0 255 
0.0607833 0.80716 -1.07024 0.0541795 -0.995327 -0.0799329 0 255 0 255 
-0.0215046 0.306208 -0.696792 0.219687 0.0361256 0.974901 0 255 0 255 
0.0667642 0.188577 -0.597939 -0.0235402 0.286354 0.957835 0 255 0 255 
0.518846 0.163576 0.335433 0.421999 0.788585 -0.447271 0 255 0 255 
-3.39414 0.367711 -2.75567 0.425279 -0.818432 0.386402 0 255 0 255 
-1.88013 -0.25361 -1.69928 -0.476649 0.353748 0.804778 0 255 0 255 
-0.867096 -0.2046 -2.37225 0.96646 -0.202238 0.158285 0 255 0 255 
-0.893847 -0.148062 -2.28624 0.915908 -0.356929 -0.183616 0 255 0 255 
-0.242172 -0.23527 -0.334059 0.243603 0.912135 -0.329646 0 255 0 255 
0.50811 0.848769 -0.16435 0.0172808 -0.606143 -0.795168 0 255 0 255 
0.229465 0.192235 -1.52613 0.615737 0.786516 -0.0475302 0 255 0 255 
-0.00394058 0.240287 -0.56795 0.361584 -0.61889 0.697304 0 255 0 255 
0.480607 0.110913 0.549858 0.669104 -0.204142 -0.714581 0 255 0 255 
0.348074 0.855834 -0.202821 0.898288 0.437316 0.0428127 0 255 0 255 
0.465637 0.612965 -0.0799516 0.891385 0.40314 0.207149 0 255 0 255 
-3.95258 0.605922 -3.282 0.924266 -0.162757 -0.345315 0 255 0 255 
-3.86586 0.687114 -3.23506 0.782747 -0.0552078 -0.619887 0 255 0 255 
0.000181258 0.0556165 0.11077 0.212555 -0.944165 -0.251741 0 255 0 255 
-3.80109 0.495665 -3.38286 0.834272 0.551206 0.0127522 0 255 0 255 
-3.39529 0.658848 -2.75559 0.721904 -0.110321 -0.683143 0 255 0 255 
-0.664183 -0.0933625 -0.538999 0.558607 0.492702 -0.667235 0 255 0 255 
-1.65723 -0.296181 -1.52399 -0.341701 0.209423 0.916178 0 255 0 255 
-4.83594 0.41405 -4.24716 -0.369692 0.554649 0.745448 0 255 0 255 
-0.292466 0.0960289 -0.0947144 0.38567 -0.422902 -0.820008 0 255 0 255 
-3.36539 0.75877 -2.72434 0.574186 -0.187911 -0.796869 0 255 0 255 
-3.67162 0.603974 -2.93472 -0.217266 0.329279 0.918897 0 255 0 255 
-4.69136 0.720448 -4.06569 0.813786 0.281548 -0.508413 0 255 0 255 
-0.102284 0.260978 -0.701647 0.189371 -0.0942445 0.977372 0 255 0 255 
0.18063 0.110033 0.366058 -0.0995225 -0.831888 0.545947 0 255 0 255 
0.401542 0.488 0.320568 0.510535 -0.449846 -0.732798 0 255 0 255 
0.514807 0.167895 0.400947 0.352562 -0.934956 0.0394608 0 255 0 255 
0.385285 0.0896204 0.380382 0.402132 0.914611 0.0421474 0 255 0 255 
-0.383201 -0.00881016 -1.86104 0.897454 0.16066 -0.410809 0 255 0 255 
0.426531 -0.0627051 -1.81183 -0.852796 -0.462797 0.241987 0 255 0 255 
-0.242734 0.17898 -1.58581 -0.391059 -0.789981 0.472232 0 255 0 255 
0.0583719 0.217305 -0.601155 -0.124959 -0.251641 0.95972 0 255 0 255 
-0.790161 -0.143875 -2.15464 0.97609 -0.216789 0.0158217 0 255 0 255 
0.226059 -7.56085e-05 -2.24108 0.380487 0.924209 -0.0326692 0 255 0 255 
-0.214587 -0.202901 -1.72239 -0.406216 -0.462496 0.78809 0 255 0 255 
-0.799844 0.0276567 -2.18239 0.655546 0.755127 -0.00653521 0 255 0 255 
-0.753956 -0.0739024 -2.14725 0.451411 -0.863347 -0.225519 0 255 0 255 
0.5223 0.143814 0.14935 0.904206 0.231274 0.359059 0 255 0 255 
0.670545 0.825757 -0.0360003 0.214192 -0.792346 -0.571235 0 255 0 255 
0.647911 0.889886 -0.688505 -0.0754683 -0.995299 0.0606941 0 255 0 255 
0.283082 0.894673 -1.19663 -0.886295 -0.42845 0.17582 0 255 0 255 
0.0396491 0.807813 -0.702328 -0.0754403 0.664099 0.743829 0 255 0 255 
0.029913 0.824889 -0.754121 0.379811 0.72773 0.571097 0 255 0 255 
0.327493 0.860796 -1.13976 -0.736768 -0.673465 -0.0601451 0 255 0 255 
0.48728 0.827428 -0.150376 0.010272 0.206297 0.978436 0 255 0 255 
0.441509 0.887007 -0.650123 -0.68309 0.267004 0.679777 0 255 0 255 
0.101514 0.289851 -0.564165 0.865852 0.368123 -0.338801 0 255 0 255 
-0.445871 -0.12226 -0.341339 0.601047 0.540845 -0.588412 0 255 0 255 
0.160595 0.841474 -1.63701 0.0299443 -0.984301 0.173938 0 255 0 255 
0.0111372 0.734289 -0.618915 0.566424 0.686973 0.455227 0 255 0 255 
-0.973453 -0.332852 -2.5682 -0.776498 0.197093 0.598502 0 255 0 255 
-0.0535315 -0.0259235 -0.653914 0.803278 -0.531694 -0.268414 0 255 0 255 
